7.130738535697828118e-01 -1.319460678884485150e+00 -3.805952976251651076e+00
9.110313771567175867e-02 1.515088502626384503e+00 -5.068817095799833083e+00
9.918880319083381303e-02 1.423522685794536002e+00 -5.025990187228821959e+00
6.848769634789126926e-01 -5.455201953805666887e-02 -4.192825827470072042e+00
-1.782467123408292498e+00 8.518260575976703830e-01 -5.890204570652590732e+00
-8.724327398936988498e-01 1.151880651748079937e-01 -5.245357526377227408e+00
-1.159762735616545193e+00 1.096066914756546884e-01 -5.447131879350498807e+00
1.363065229132904177e+00 -1.389326838573694323e+00 -3.645388171943010125e+00
1.120100911570758084e+00 -1.277428468238881010e+00 -3.893393451748256684e+00
-2.011188142439263249e+00 4.192228130240138184e-01 -5.947184097653266832e+00
-1.446859116823789870e+00 4.874829702495770412e-01 -8.400608649638432013e+00
9.087069802144450703e-01 -1.479578569781277997e+00 -3.296386986964304988e+00
6.412882785157462129e-01 -1.334823385223351977e+00 -3.612245302889717902e+00
4.661787100394536587e-01 -1.323637380081880588e+00 -3.657231261340408324e+00
2.614165115484737845e-01 -1.247569926997607492e+00 -4.084025498261833143e+00
-4.358650551261232797e-01 -1.026816408819214432e+00 -4.597367686785760021e+00
-2.087258980427238342e+00 -2.283929205617483138e-01 -5.220308022107540857e+00
-1.571043509559388207e+00 -6.076438355483448905e-01 -5.502523518226152710e+00
-6.956643532475357272e-01 -1.198216227840251280e+00 -4.146799532914835495e+00
-2.249331860952674234e+00 -2.123607918939113548e-01 -6.392011497169192147e+00
-1.109766931872064655e+00 1.016420939334394813e+00 -5.652545822801816833e+00
-1.821203042832455932e+00 4.481999501004213515e-01 -5.816231402693275321e+00
-1.331509992241712625e+00 2.793048198263853865e-01 -5.514376057970414635e+00
-9.010364893836780853e-01 2.502308226473834440e-01 -5.211432169217356858e+00
-8.947368772112037627e-01 1.248605435928495100e-01 -5.263498431290781099e+00
-1.516798489721900234e+00 -8.902985172104958822e-02 -5.804673651487482822e+00
-1.216406749663845099e+00 -1.069113286797255119e-01 -5.649158699562996766e+00
3.019407970713282041e-01 -3.874275407364684010e-01 -4.642645023161930951e+00
9.957726017449032296e-01 -3.731090018420922805e-01 -4.178627531963845954e+00
8.078770327332777113e-01 -5.344821788152868125e-01 -4.362063645678562196e+00
-5.416362701264461066e-01 -6.611564284646431755e-01 -5.336430394372316144e+00
6.224921044122636582e-01 -1.280402620784000245e+00 -3.863914772525359975e+00
-1.413631794746472492e+00 1.003179381343243692e+00 -5.819764989535869404e+00
-1.907345702405425891e+00 4.642451173057338121e-01 -5.869774885548736165e+00
-2.014713548801516207e+00 3.213923117670641205e-01 -6.017225285789233880e+00
-1.730786556708999724e+00 2.673034564344250463e-01 -5.895593801702672110e+00
-1.832881558795875110e+00 1.726343675597187821e-01 -6.010723732236868955e+00
-1.176181379361234569e+00 3.673432588441261776e-02 -5.580609943059234190e+00
1.399566868854026647e-01 -1.758217713760681367e-01 -4.671593186318661495e+00
-1.228933713877060407e+00 -6.475987153379540728e-02 -5.624130234290801056e+00
8.567662966828248905e-01 -5.480295305624816038e-01 -4.353416395762043756e+00
-1.999904827162835241e+00 -2.106055811447328785e-01 -6.213575105659482567e+00
-2.146511190562176985e+00 -2.060855783734606983e-01 -6.319221687511365815e+00
-5.308900354213313300e+00 1.500998805791396107e+00 -3.776849004210658389e+00
-1.449868517986296013e+00 -3.288011401930110988e-01 -5.858151141239932969e+00
-9.347686058095846517e-01 -4.849151913656831736e-01 -5.535427512289479601e+00
-1.436225913724638925e+00 1.009029411570071311e+00 -5.837225075702038524e+00
-1.947165926114466483e+00 4.742850705522609345e-01 -5.898681230622605298e+00
3.746415415222299483e-01 -3.272696396491823756e-01 -4.581546282918071533e+00
2.936247938115762457e-01 -6.730154937000444315e-01 -4.774535831075580994e+00
-2.052374233582539009e+00 8.950957451709769253e-03 -6.161752598478385856e+00
-9.634589981359168442e-01 -7.646395979226184858e-01 -5.134991126906133907e+00
-1.707846954273691820e+00 1.515575969384189037e+00 -6.249497808149029332e+00
-9.344395888257721328e-02 1.071827859736245836e+00 -5.243371656119185431e+00
-1.518400885977979620e+00 1.024183747603087502e+00 -5.861151677260458825e+00
7.844761282641140587e-01 6.690181872469177504e-01 -4.642520827337821565e+00
-9.733550360164400228e-01 7.156186427744887224e-01 -5.413886434552890314e+00
-3.496225028926006617e-01 5.381837926750068224e-01 -5.025630514797192916e+00
-2.567269904293358329e-01 5.198544503286872676e-01 -4.972837902911004804e+00
-3.554723861199797774e-01 5.068766889418081512e-01 -5.009426152710707569e+00
7.307330718098750122e-01 4.008541827674164115e-01 -4.491299198214929511e+00
-1.070502163242642718e-01 4.366436004478540522e-01 -4.876821112691959392e+00
-1.348433137986744468e+00 4.501740815640732918e-01 -5.449072525849588899e+00
7.103679470801386175e-01 3.692380310805709054e-01 -4.485231659958128780e+00
-1.137153943375702303e+00 3.927740657479441566e-01 -5.330278626654235907e+00
-1.037871884261666544e+00 3.676002790168201861e-01 -5.261554834281763071e+00
-8.550136486900526966e-01 3.210928305225060897e-01 -5.152413598215927593e+00
-9.689724578231406760e-01 3.079865708080425368e-01 -5.234412453149009714e+00
-1.293876493804666072e+00 3.220057570298534011e-01 -5.456603271397067800e+00
-1.128047585873240166e+00 2.843222371019060724e-01 -5.365857768573562225e+00
-8.605071641413332140e-01 2.712303481273731776e-01 -5.163359083642037994e+00
-1.413947294675372834e+00 3.019633753101491069e-01 -5.683577630508616529e+00
-1.888080851544214012e+00 3.091022585684551349e-01 -6.013520403044290141e+00
-6.961538705907910352e-01 2.134825041240509258e-01 -5.071457830508683706e+00
-1.015167526956813004e+00 2.196139809660525577e-01 -5.311135415090508793e+00
-1.837857250412932020e+00 2.183674542137411245e-01 -5.973698481142877270e+00
-6.781689384586871983e-01 1.784497972258800025e-01 -5.075372350735932514e+00
-8.028010602066522061e-01 1.678214191274006728e-01 -5.171209838771019029e+00
-9.824499339251137053e-01 1.605391063106725857e-01 -5.304495889730094227e+00
-1.471431169518476079e+00 1.593903686169778899e-01 -5.662187679711592203e+00
-9.013277780547304108e-01 1.508242538579621650e-01 -5.254243271375890423e+00
-5.190412480032539078e-01 1.295370904184239835e-01 -4.981244971665673482e+00
-8.469651867381980948e-01 1.314049075937642197e-01 -5.221409250359516641e+00
-1.816200139813320680e-01 8.803695315119214326e-02 -4.769994273140211405e+00
-5.345791332304290489e-01 9.027875228945429764e-02 -5.016782862669773024e+00
-1.841564112146615972e+00 9.048761339271983728e-02 -6.033190110437232967e+00
-1.346416806485720707e-01 5.388615464729338417e-02 -4.752700133494670354e+00
-2.076093396397952429e+00 4.859963937872486400e-02 -6.172986541992711018e+00
-1.816932865470048286e+00 4.168870005788682248e-02 -6.053946890673664427e+00
-1.846096472571373770e+00 -3.569534878132853140e-02 -6.090598993217848367e+00
6.614205571863204236e-01 -4.297693427868371635e-02 -4.206640299916964310e+00
-1.756415973949052134e+00 -5.813977310438857293e-02 -6.007730412625399197e+00
-7.091028755710703235e-01 -1.200171111672987262e-01 -5.289285547433954626e+00
-1.624826596600937034e-01 -1.328782485882705200e-01 -4.845634045053118122e+00
-6.093936822922735308e-01 -1.438930448706080001e-01 -5.223296026014659255e+00
6.562568878055913268e-01 -1.776720671004124175e-01 -4.324221309801501434e+00
-1.933002404222413206e+00 -2.626084767513662266e-01 -6.175378898860811816e+00
-7.681136986277625756e-01 -2.356969742972063464e-01 -5.392518330730093012e+00
7.205937620066923399e-01 -1.976919889426587140e-01 -4.296996572725776176e+00
-1.228403632314832294e-01 -2.289629870845094339e-01 -4.922763266773071855e+00
-1.496707563513197670e+00 -2.974317331168598311e-01 -5.878948595491762852e+00
-6.116907151507947615e-01 -2.745775713565681286e-01 -5.280777353373783178e+00
-7.692201331855438307e-01 -3.170656417411600869e-01 -5.432486994836588146e+00
-1.082401814439543530e+00 -3.285556877869128534e-01 -5.595076335326877981e+00
-7.091651372399904174e-01 -3.334915554522080994e-01 -5.389225207587492683e+00
-3.400064521673513140e-01 -3.660876120239218157e-01 -5.060216039968101320e+00
-1.084211448783644505e+00 -4.489510900081338240e-01 -5.644586771816442194e+00
-1.191146231940195532e+00 -4.592443620656386227e-01 -5.742273563467034769e+00
-9.061839289106539130e-01 -5.030880223078815217e-01 -5.526087158114166620e+00
1.048021700417349766e+00 -3.854423519772349760e-01 -4.159753632010385616e+00
5.907907754184408278e-01 -4.500940417204503663e-01 -4.547471559788202278e+00
-1.240506574065266127e-01 -5.095887070800245722e-01 -5.048962997758360771e+00
-8.235804442397661740e-01 -5.622424421944017814e-01 -5.498204147845346945e+00
-3.717649472331894245e-01 -5.441967017058300105e-01 -5.166918627342436565e+00
9.706829830262773129e-01 -5.114827603346316920e-01 -4.254653980467834273e+00
1.022893227299504632e-01 -6.191179131964372750e-01 -4.861507681364862776e+00
-4.662080136498317762e-01 -6.709026604741717970e-01 -5.272655533470443245e+00
-1.819970328803628412e+00 -6.863860272263263562e-01 -5.270514536885445800e+00
1.201369758792946829e+00 -5.821311453316676543e-01 -4.168209379598296849e+00
-2.020213589524954834e-01 -7.051509164054244883e-01 -5.115512705142926997e+00
5.878687726431133242e-01 -6.899781493510003250e-01 -4.648101231393785504e+00
-7.897313401050634965e-03 -7.569666266720433967e-01 -5.034803852735461049e+00
5.123870447422202573e-02 -7.675114200998320868e-01 -4.951322567947894271e+00
-1.025403900807698943e+00 -7.883793484499341808e-01 -4.975904611629490937e+00
4.220882092330276447e-01 -8.713508740088494742e-01 -4.740213869194838558e+00
5.787438369718376219e-01 -9.143475073538469555e-01 -4.695908380066916799e+00
1.042946756321336821e+00 -1.011565157163386575e+00 -4.381537563519806611e+00
1.193940043023794306e+00 -1.049400932854209323e+00 -4.347292258429769518e+00
3.624460029664896762e-03 1.045325792922404240e+00 -5.181362758866255191e+00
-2.797502951400725885e-02 1.041384890015020215e+00 -5.210409109176114661e+00
-1.200922895620577746e+00 1.114522380356224529e+00 -6.236802859573329805e+00
-1.209965685732913743e+00 9.541465035693800223e-01 -5.646659036664199327e+00
-1.246275940694141937e+00 9.672848986678438399e-01 -5.709124132437851884e+00
-1.365326602534873146e+00 9.932827004923487912e-01 -5.786601604821498768e+00
-1.786906407416281040e+00 8.921281617025145216e-01 -5.917251393375298818e+00
-1.831274506324026108e+00 8.667025511374306657e-01 -5.919804929466329746e+00
-2.750813486095070037e-01 5.187197355143566835e-01 -4.986056056527713665e+00
-2.142272923268198348e-01 4.989147251132131089e-01 -4.949550527679598133e+00
-9.544666191876216566e-02 4.683740546207512123e-01 -4.883896191713268387e+00
-7.730960355476577950e-02 4.538167750561577507e-01 -4.848657054976204250e+00
-2.174369589398552183e+00 6.903053054347958462e-01 -5.882845020054739749e+00
-1.992376042121474233e+00 5.659540661250205273e-01 -5.887231100165549513e+00
-1.617798890410600210e+00 4.767779454725660782e-01 -5.636794386785370037e+00
-1.725133280281676784e+00 4.594370123241691140e-01 -5.729042490729835180e+00
-1.844665039930513561e+00 4.835408169608664264e-01 -5.808053525485443735e+00
-1.788341734020566287e+00 4.069089608821301884e-01 -5.793121449564107905e+00
-1.087372378994279076e+00 2.794450145354816506e-01 -5.327389535991749803e+00
-4.735216247823938462e-01 9.917345538297719920e-02 -4.966218840253358913e+00
-1.790943404996615307e+00 2.840599047884828088e-01 -5.936536904051176400e+00
-2.042194617806018631e+00 2.787502938634632832e-01 -6.038451110692822255e+00
-1.737312797526038288e+00 1.937755893899236748e-01 -5.916508842317233174e+00
7.391247813796556487e-01 -1.717113227267792197e-01 -4.262355682172779048e+00
-7.766988783897029736e-01 2.293511565102840377e-02 -5.267503437186078052e+00
-6.990629095516509572e-01 6.152030270766174411e-03 -5.243745908066642869e+00
-1.794206834971843190e+00 1.632456951712733806e-01 -5.989101473396636344e+00
-5.969539051779498839e-01 -2.051880230495167767e-02 -5.183236469019329107e+00
-1.737920201139616649e+00 1.496077458899509882e-01 -5.936673885973881681e+00
-2.058851975290603598e+00 1.876221309217604438e-01 -6.102709186788711548e+00
-1.222816277494024773e+00 5.055454948239866686e-02 -5.586925082567241851e+00
-7.769155676018186796e-01 -5.845314766682774971e-02 -5.302186935125649647e+00
-6.865803593228508861e-01 -8.631526318740993797e-02 -5.261373724869334190e+00
-7.031054375195908701e-01 -7.925886736268723809e-02 -5.278879920688565264e+00
-1.743304527687829175e+00 2.013711806212437755e-02 -5.994094316415281121e+00
-2.198036199115462441e+00 7.360856510873889369e-02 -6.254669787702590078e+00
-1.543112610694968856e+00 -3.192710444327193781e-02 -5.793419763477161588e+00
8.102591145184478288e-03 -2.623645396946356900e-01 -4.875464685093217732e+00
-1.490972595220735331e+00 -5.871448219183906386e-02 -5.769290816376952513e+00
-1.299923053813163421e+00 -8.818039691322894502e-02 -5.706218993813291007e+00
-1.904902476611438189e+00 -2.306063638756252268e-02 -6.145931442570987890e+00
-7.777250531372763565e-01 -1.887937664564087459e-01 -5.359863685175570325e+00
-3.992869050807640874e-01 -2.447871866375050109e-01 -5.055377990736308114e+00
-1.101337724334614077e+00 -1.459862563133963731e-01 -5.524646765274167315e+00
-6.904430128632432773e-01 -2.151670672725076172e-01 -5.315766589619942195e+00
-1.656234560651172361e+00 -9.838888441599671908e-02 -5.909703583844209795e+00
-1.339412619680323768e+00 -1.967409063792978086e-01 -5.789172821348393505e+00
-1.298703627991980580e+00 -2.093252199897054078e-01 -5.767204952268174090e+00
-1.228485313431921799e+00 -2.311704459127852662e-01 -5.714482599963798926e+00
-1.186852618522818092e+00 -2.397777619179767561e-01 -5.694817152083502698e+00
-1.511417435743000803e+00 -2.176329860672433225e-01 -5.853180525154772162e+00
-6.031937856149416355e-01 -3.620269038316425991e-01 -5.330884500937150605e+00
-1.523626502091561363e+00 -2.425092078407085905e-01 -5.853576777438848744e+00
-1.559537967100774969e+00 -2.341332006444188651e-01 -5.888291541331178713e+00
-1.059993372188611005e+00 -3.145794557403679970e-01 -5.555458883470835829e+00
7.651695414136142626e-01 -6.014900410833208255e-01 -4.418198980205331416e+00
2.057641123044129017e+03 -9.324601212884451797e+02 2.432700637385258233e+03
-6.417555240684434670e-02 -5.257520840058257372e-01 -4.975752401452767870e+00
-1.297863322278000053e+00 -4.225531262536711963e-01 -5.816564871485546462e+00
-6.072151002962040689e-01 -6.488361893389571478e-01 -5.375202187893605377e+00
-7.503826067647360043e-01 -8.163751574573071546e-01 -5.004574157881287455e+00
-2.314650332536866806e+00 -6.462279966181004864e-01 -5.322822331765031834e+00
-2.194398082723302501e+00 -8.316423551354952259e-01 -4.752031634027026996e+00
6.069833817665210018e-01 -1.341327155352960210e+00 -3.626794602695680769e+00
6.881562886506620291e-01 -1.361116771114592838e+00 -3.569000928878129475e+00
-7.005814408194994958e-02 1.049431108123992651e+00 -5.225929686755534931e+00
-2.207025204937164975e-01 9.401762520021997860e-01 -5.244320398208333067e+00
-1.628119177486317126e-01 9.281945534794955321e-01 -5.203038730625397790e+00
-1.782002336584954216e+00 8.489002050307851155e-01 -5.863364886147850008e+00
-1.032771361345174332e+00 7.338482523206324437e-01 -5.455166041367911056e+00
-3.964794685277883701e-01 5.104685981207018886e-01 -5.024152990766598492e+00
-3.062991347481737736e-01 4.901058802132368664e-01 -4.944101527757052139e+00
-1.929337523820499944e+00 5.407653206856924966e-01 -5.849878292215898057e+00
6.773295611047075448e-01 3.891480398484692960e-01 -4.493415035440385452e+00
-1.889764970089426566e+00 4.958642335788089883e-01 -5.841643653516169543e+00
-1.817627402776261114e+00 4.129475355617773791e-01 -5.843792216066812095e+00
-1.944587245291101718e+00 3.462928318734671551e-01 -5.943965106235878260e+00
-6.595311629998114045e-01 2.717754506739681331e-01 -5.021886171204495319e+00
-4.531957825494971059e-01 2.167763216831059825e-01 -4.913009318053660479e+00
-8.433066454991618999e-01 2.271397974428177313e-01 -5.180943356129281696e+00
-5.594143072225354896e-01 2.051976506280864532e-01 -4.984993512749493760e+00
-5.656494618283736120e-01 1.693683645261705728e-01 -4.999847192807977514e+00
-6.214912547048476732e-01 1.611430554382919933e-01 -5.040912865453954339e+00
-4.895566062713265221e-01 1.436071817825550767e-01 -4.966603589453916889e+00
-1.890284677559984416e+00 1.862039785657659541e-01 -6.076652071030370195e+00
-7.137839823769597247e-01 1.478813949577901243e-01 -5.119488560492282403e+00
-1.064815693417424658e+00 1.352658660186689121e-01 -5.372896181795976389e+00
-2.069642612269042836e-01 1.138355154923487433e-01 -4.775416255403415633e+00
-4.928931056525473475e-01 4.310277230354616490e-02 -4.997884426051385276e+00
-1.896555242883463555e+00 5.574415855124670305e-02 -6.138709107295725609e+00
-4.280963966643156482e-01 -6.270909326152475545e-03 -4.974626245222367515e+00
-5.069440398185879326e-01 -4.046635062424185775e-02 -5.039307747896602407e+00
-1.823374686675550915e+00 -4.519724458711166237e-02 -6.086908410050184237e+00
-1.515503558534727180e+00 -4.991437144817836152e-02 -5.803874467836160456e+00
7.594059288241951367e-02 -7.467016663155562339e-02 -4.664329454200935920e+00
-3.013743467002945597e-01 -8.178919976882045861e-02 -4.908892189314146393e+00
1.686108203234223613e+00 -8.548018420793919436e-02 -4.685571022135428976e+00
1.713918282449585107e+00 -9.072262414409422437e-02 -4.673478385151440762e+00
-7.628528574951842778e-01 -1.104718555639851857e-01 -5.357906400341236441e+00
4.334980668179307939e-01 -1.029115339607876572e-01 -4.436346114450545386e+00
-6.850020148738881209e-01 -1.239650833362174881e-01 -5.282266369710487908e+00
4.709356534300921382e-01 -1.092336171247153820e-01 -4.412957019987653773e+00
1.750520408793980742e-01 -1.095021554385365165e-01 -4.607799812959051167e+00
-2.063394274273711027e+00 -1.470833154022164191e-01 -6.232863720852065192e+00
-5.538571452050750077e-01 -1.826679358910169026e-01 -5.137214562685655572e+00
-1.046937420711805178e+00 -2.090616700813130169e-01 -5.511820826337348045e+00
-7.095863872487169211e-01 -2.063424552395967115e-01 -5.325211101597723484e+00
4.723098781711315142e-01 -1.802437516049630595e-01 -4.443793091356215363e+00
-1.828133560278520697e+00 -2.570380854173372476e-01 -6.097378700222829906e+00
-6.862296674621320980e-01 -2.538597340524451629e-01 -5.342727511276623709e+00
-5.176282054726289994e-01 -2.557794644174855025e-01 -5.133480906815145239e+00
7.026301601510444028e-01 -2.226086727102247476e-01 -4.318280430709400264e+00
4.982138362909900309e-01 -2.253573298940471370e-01 -4.437163667979360682e+00
-4.127428282788198760e-02 -2.516587064659575601e-01 -4.886996363465713422e+00
-4.923009954122765097e-01 -2.690373834498924199e-01 -5.131339038012175280e+00
-1.040985647638782430e+00 -3.145877021277538876e-01 -5.492866608515318383e+00
6.164150785948736555e-01 -2.628444695498977079e-01 -4.388216267830423511e+00
-5.026729774198612777e-01 -3.254186551580692255e-01 -5.163732413306789226e+00
5.325352630062883952e-01 -2.847554180918587807e-01 -4.444550647209212002e+00
8.262829749982937289e-01 -3.089046997383939064e-01 -4.275705365079445208e+00
-4.200801587211729915e-01 -3.864560661881658032e-01 -5.118756702608605380e+00
5.750871942691655470e-01 -3.430879543519035346e-01 -4.440333843955422743e+00
-4.564771156640925476e-01 -3.994132576914937727e-01 -5.165063711577938754e+00
-2.722739768791007542e+00 -4.625267523627020205e-01 -5.839609794392197628e+00
-4.334245729742394054e-02 -4.096738732993630561e-01 -4.951964721206534747e+00
-4.994370897962804867e-01 -4.488756251327474245e-01 -5.223011035279909287e+00
5.122776199330383307e-01 -4.306989567595349011e-01 -4.582788930193708588e+00
-3.363576356222058861e-01 -4.915958377401873358e-01 -5.113955363491150763e+00
-7.819108396449458986e-01 -5.723525426659767934e-01 -5.468221982444986473e+00
1.120747915061673927e+00 -4.476538479252203939e-01 -4.132280299417882219e+00
1.094260379879025136e+00 -4.712946935083210942e-01 -4.169630182110949157e+00
5.826656439711359603e-01 -5.444841926747054917e-01 -4.572997655870119971e+00
4.701850184251191167e-01 -5.607651920847120941e-01 -4.658376671166741367e+00
5.096032042417443231e-01 -5.688455605641936641e-01 -4.638924448674355716e+00
5.302933439456185560e-01 -5.710798039941521465e-01 -4.628548566378098528e+00
-1.662217955373704648e+00 -6.773562128828727325e-01 -5.351154954728404967e+00
1.061299388295253943e+00 -5.456972888068885030e-01 -4.211058492915630502e+00
9.359115610417677589e-01 -5.957122423313296888e-01 -4.307703338032339069e+00
4.728227811412362147e-01 -6.577117386014036393e-01 -4.704939464503352653e+00
5.093604327469211102e-01 -6.694777817627755034e-01 -4.679561590169604379e+00
8.072111593647848249e-01 -6.491625609826473520e-01 -4.399696103888070198e+00
2.631202582015748082e-01 -7.366008575926915602e-01 -4.799242813375071748e+00
7.949677222455479031e-01 -8.436158443471546420e-01 -4.481170100619131347e+00
7.430584816200499487e-01 -8.809762846543703896e-01 -4.532566166070438385e+00
6.611956009375835608e-01 -9.226306342309872344e-01 -4.594005021215764373e+00
8.540580702999759355e-01 -9.066964299696919083e-01 -4.473518683129349860e+00
-4.484099843637288085e-01 -9.714865857641049596e-01 -4.660015261873817316e+00
8.435453979784716116e-01 -9.516194464780317608e-01 -4.479737586560389673e+00
-1.723442308453830396e+00 -1.062196598198081210e+00 -4.178826897169460430e+00
7.834529765011576385e-01 -1.286540866852530884e+00 -4.188116060350082215e+00
1.485671015181593058e+00 -1.318701912178190438e+00 -3.693400996785152213e+00
-2.385886364544104743e-01 -1.319158972993911050e+00 -3.713905756257842139e+00
-1.694574217643227687e+00 1.941137798554536831e+00 -6.176070269141222369e+00
-1.738790219461354258e+00 1.570998791128344507e+00 -6.358039676848205701e+00
-1.866191113855064199e+00 1.402647325541500400e+00 -6.269808289723626693e+00
-1.207768417506730196e-01 1.081672160833684337e+00 -5.265343301671039811e+00
1.870226736971042358e-01 1.092985577343692283e+00 -5.388680162600508083e+00
-1.424861954744976122e+00 1.063509322715930239e+00 -5.811253239668372927e+00
-1.332936743681335523e+00 1.044995431264308827e+00 -5.757403115012982298e+00
-1.333526119119894382e+00 9.820636769825841217e-01 -5.716962955601577079e+00
-1.271347627300732253e+00 1.052724358133619642e+00 -6.188731131153293319e+00
7.656846553088861862e-01 6.793016185514639815e-01 -4.684613136046202442e+00
-2.029294291591217103e+00 5.824622200360599633e-01 -5.909933059076528217e+00
-2.411628746903833886e-01 4.708343978754100378e-01 -4.935272128495213018e+00
-1.626194059534491032e+00 3.624231394609891965e-01 -5.703968303724097133e+00
-5.351662365773339758e-01 2.387930075341788971e-01 -4.958790258130025386e+00
-9.018514663808527843e-01 2.165407391328891540e-01 -5.251349893065641261e+00
-1.199304624048038725e+00 1.925270580408183496e-01 -5.437884156275752723e+00
-3.483778222867920937e-01 1.643210428099774745e-01 -4.837806764251321390e+00
-1.894446557678180598e+00 2.094508018498207058e-01 -6.074479200554786296e+00
-1.814759829944317060e+00 1.698881665304959043e-01 -6.003069578456639022e+00
-5.903281394541128047e-02 1.155689995505594925e-01 -4.682352525853299419e+00
-1.359235768692948154e+00 1.088854666563710410e-01 -5.662143752688044707e+00
-1.302123669327444944e+00 7.086621348459813674e-02 -5.603674326376500758e+00
-1.234294637279860218e+00 6.879696706470860013e-02 -5.621761149764986421e+00
-3.299085862637791133e-01 5.004128381820278915e-02 -4.887252645640915993e+00
-8.233681088589016595e-01 5.394481352157640824e-02 -5.261517841222865144e+00
-1.928450822073045634e-01 4.135783989976641456e-02 -4.824058419282681420e+00
1.384958444665860822e-01 3.012431822720926938e-02 -4.577439949667955865e+00
3.686076784874229295e-01 1.830106499008968962e-02 -4.431780030805008153e+00
-1.939846999258883820e+00 -5.559993201996074608e-02 -6.219999423658766347e+00
1.519593116971978963e-01 -7.726741134714125436e-02 -4.613239296213023088e+00
4.852062700402148127e-02 -8.453348451451456191e-02 -4.667560830320062415e+00
3.598501055227415479e-01 -9.342546189072087337e-02 -4.464540992241787798e+00
1.253661783187878020e+00 -1.172843601670084945e-01 -4.533462170861327856e+00
1.294556143023497530e+00 -1.244320400503624302e-01 -4.529662980789294302e+00
-2.081094375572768218e+00 -2.131791150660551359e-01 -6.306012397643692147e+00
-5.239296576263963168e-01 -1.743334072294283332e-01 -5.107721746147966257e+00
4.097196677577196189e-01 -1.443731225899417270e-01 -4.064314653006396050e+00
-1.362730330274222412e+00 -2.229609651657249170e-01 -5.817984779212373780e+00
3.679090767507626758e-01 -1.795902377946363149e-01 -4.499797046857356264e+00
-3.835564144872503078e-01 -2.154463383862360581e-01 -5.035756107007128612e+00
-6.137222724196792489e-01 -2.280468858377757146e-01 -5.232512397905305868e+00
5.603684280339445989e-01 -2.064172282010343640e-01 -4.395678926645512519e+00
-9.508093588668350415e-01 -2.510205891624824881e-01 -5.466895089902600091e+00
6.651025765942513157e-01 -2.121585683899286368e-01 -4.324696595076143346e+00
-4.849867261787564332e-01 -2.436591226636951879e-01 -5.130055954453228040e+00
-6.105539862737164869e-01 -2.515395318598614982e-01 -5.253198322122438313e+00
-1.462699070359279485e+00 -2.861320007141821553e-01 -5.822052005401668673e+00
-1.016983613703350775e+00 -2.842132458610118206e-01 -5.528504553354882667e+00
6.431797016405204070e-01 -2.275772486952911955e-01 -4.342705704246117016e+00
5.600924736983234897e-01 -2.387373853943984270e-01 -4.404795970266276228e+00
6.921491218395909861e-01 -2.485014396635364942e-01 -4.322182500654760950e+00
6.338669937949470423e-01 -2.452635856780090995e-01 -4.344936443808605553e+00
7.515740188266027966e-01 -2.837564372633931686e-01 -4.298706565681102987e+00
-1.321391558875146532e-01 -3.444260764337511160e-01 -4.939166218272472264e+00
6.355084186027462612e-02 -3.338059167572647867e-01 -4.764901888922066675e+00
4.977730967339812351e-01 -3.230372163742821212e-01 -4.474090190908912135e+00
-1.921526835594241506e-02 -3.721500861645703484e-01 -4.868159774822387931e+00
6.725450350684613054e-01 -3.370969787086338099e-01 -4.366125931189487552e+00
6.911513678738899769e-01 -3.543344999181818333e-01 -4.364004819059614348e+00
8.658084524485500921e-01 -3.559330920365514905e-01 -4.257046344343438093e+00
-3.526953031377798586e-01 -4.342393957323142928e-01 -5.121723036044538269e+00
-2.106007478664984500e+00 -4.785817523274625840e-01 -5.654297822541247243e+00
4.734571759265489566e-01 -4.234896433376761360e-01 -4.620044917233247617e+00
5.301180851877957956e-01 -4.337750148820070928e-01 -4.569680889577076854e+00
-1.083089005188475618e+00 -5.411146631210420610e-01 -5.678410837408272904e+00
2.998836948610865694e-01 -4.683582670541059922e-01 -4.669455504519156364e+00
-4.828666368470760362e-01 -5.479702486367563630e-01 -5.253164039168130905e+00
5.909752415633071770e-02 -5.116634831809349082e-01 -4.847652999367618065e+00
1.297864836307056180e+00 -4.411292748471610237e-01 -4.042290014929641906e+00
8.455788345084037649e-01 -4.700936946850581277e-01 -4.301656703120930736e+00
1.166661405759693793e+00 -4.644576621498380242e-01 -4.110525185039421103e+00
5.083811030928905295e-01 -5.262936326016982580e-01 -4.612873541783035769e+00
5.489871381186367527e-01 -5.345569738804397675e-01 -4.602500454791708329e+00
3.101568267569244086e-01 -5.420258953620520348e-01 -4.687510693302330722e+00
-1.556067586596365571e+00 -6.440872129247019462e-01 -5.427351124629676171e+00
-1.356644673920480715e+00 -6.398789645142651805e-01 -5.291014483324138595e+00
2.677210594211310912e+00 -6.931781240669522282e-01 -5.486174728764239283e+00
1.296350087720205435e+00 -5.188760968181386213e-01 -4.061636351054284333e+00
2.648733358009974781e-01 -6.479195740979579732e-01 -4.759181626662384978e+00
2.988785518165899546e+00 -7.646245808761168439e-01 -5.400029683536226699e+00
2.776302397287327750e+00 -7.472826231473757019e-01 -5.362007268192404474e+00
1.311268176729622204e-01 -7.035864474631802201e-01 -4.869973619605774573e+00
8.642384232811515243e-01 -6.580517941128714021e-01 -4.364134479407009160e+00
-1.043439655083830075e+00 -7.815577955754404726e-01 -5.089421366985070527e+00
9.706623332776820323e-01 -6.622231975139608595e-01 -4.295928320337623063e+00
2.948390777659649409e+00 -8.403080262445796755e-01 -5.325100869585261520e+00
1.117323228898884219e-01 -7.685026268129382387e-01 -4.898550649438370819e+00
9.777449734445330387e-01 -6.818766523956801828e-01 -4.285635410002034185e+00
8.654653769536976293e-01 -6.950978421607215685e-01 -4.365824574660823743e+00
-1.935281337860015993e+00 -7.990158085093364004e-01 -4.960574565203796915e+00
-6.786393455671261288e-01 -8.335335518201339999e-01 -4.992747358423372361e+00
1.248458548899216591e+00 -7.052242306562224172e-01 -4.134665994570251080e+00
-9.363029612046750438e-01 -8.507237412824636413e-01 -4.886842461674736349e+00
-1.825250973657156273e+00 -8.466418166925122613e-01 -4.817393312073554590e+00
1.281432207796129763e+00 -7.785954731440534182e-01 -4.151164339296926187e+00
8.691751389929022187e-01 -8.514262161106941340e-01 -4.416768414222524086e+00
6.497143230331200447e-01 -8.962093387290903657e-01 -4.587913940810138591e+00
1.274431922628559199e+00 -8.273457341379680807e-01 -4.163096197062246873e+00
-2.288737735472843593e-01 -9.415538304175157247e-01 -4.698734098573072338e+00
6.298221666878529579e-01 -9.317007747438540433e-01 -4.607534190540803820e+00
2.599199242989319369e+00 -1.010575902310034913e+00 -4.856614364032796338e+00
-1.835200762845914157e+00 -9.586679569587214234e-01 -4.504239383228760829e+00
-2.325540297816247381e+00 -9.423995363732868835e-01 -4.408904001617266921e+00
1.276224870820446666e+00 -9.064919899231417277e-01 -4.205905165938931489e+00
1.248523237864903601e+00 -1.040572157399503261e+00 -4.251287594156240246e+00
-1.688245715444244288e+00 -1.074382572734797314e+00 -4.213437558422437057e+00
-1.911931862105660462e+00 -1.131726316439545243e+00 -4.068926915367979902e+00
4.713867146181147105e-01 -1.184253904923793677e+00 -4.153862237245530054e+00
-3.522511659157650521e-01 -1.177295261692129946e+00 -4.063873709547404900e+00
-1.666970334961198397e+00 -1.176928096643697241e+00 -3.919634105040322058e+00
-1.529684180810156890e+00 -1.187165975062267398e+00 -3.876514252006739714e+00
9.077516728712076155e-01 -1.236536468703692382e+00 -3.933404132716493695e+00
1.090596562384660295e+00 -1.255929391404841722e+00 -3.957985149631555455e+00
1.126813418362725638e+00 -1.263435565604788424e+00 -3.917190092292937464e+00
4.325781091695946601e-01 -1.309550500286920771e+00 -3.644317702419168192e+00
1.419642808894934216e+00 -1.357684327337720376e+00 -3.599228957975857845e+00
-1.746857942576176326e+00 1.888932809889692033e+00 -6.026373515038785378e+00
-1.679632619662850379e+00 1.495251912064759159e+00 -6.176475903527057554e+00
-1.789605236273645206e+00 1.425078374365009948e+00 -6.186989899014476713e+00
-1.823551258703946854e+00 1.387603269768138858e+00 -6.180820111871326183e+00
-1.265318837623945036e+00 1.033787292658989054e+00 -5.728703643589321715e+00
-1.215774302769131010e+00 1.021721255841496090e+00 -5.703900636778048927e+00
-3.359216872879073473e-02 4.857457226819887897e-01 -4.819629709212010837e+00
-5.152609256654543807e-02 4.771503118220929429e-01 -4.840956904072438505e+00
-2.679763405739951643e-01 4.762277223604029497e-01 -4.939527931522600390e+00
-2.076237700150433962e+00 6.221208470415311442e-01 -5.929900732799555207e+00
-2.341191347059819794e+00 5.930510392112303686e-01 -5.389901671120155058e+00
-2.056560153833158378e+00 5.858651534364660574e-01 -5.918754793528750113e+00
-1.364518455713622291e+00 3.722110844393022866e-01 -5.475310336824899871e+00
-1.258118546944625882e+00 3.451737524475341767e-01 -5.430810451664221716e+00
-1.907250856690204666e+00 4.365135812672509275e-01 -5.868501995504328050e+00
-1.230020917049470031e+00 3.196489098451056887e-01 -5.431798720377752687e+00
-6.696753831720668737e-01 2.252408333390429063e-01 -5.054514126532231089e+00
-1.327697089235303718e+00 3.249093079664653327e-01 -5.489591093094765561e+00
2.141617164087146474e-02 9.391518841459117750e-02 -4.640657729456181713e+00
2.273148570526133672e-01 4.536581443824443810e-02 -4.529580019348787623e+00
-1.041160360217424863e+00 2.462697392473214286e-01 -5.298576046157716490e+00
-1.655824727899446680e+00 3.465369479202336511e-01 -5.727397144667851769e+00
-6.421895202506113787e-01 1.599240879527862869e-01 -5.651553925268981260e+00
7.453405605763323560e-01 -8.514310888122017529e-02 -4.239467390663357982e+00
-3.571712613285940585e-01 8.488157284156933047e-02 -4.880383949365835861e+00
-1.022736045556661200e+00 1.858847976429738313e-01 -5.339134134713441782e+00
-1.630756466142308625e+00 2.370064284104077268e-01 -5.742541146018177223e+00
-4.743036963631385716e-01 4.315189204006630169e-02 -4.969931414701894035e+00
-1.891132672178597263e+00 2.348899070137694667e-01 -6.048620133195828252e+00
-1.632125236692877790e+00 1.962404943752857345e-01 -5.764511145857496466e+00
-2.154853016198605253e+00 2.544912506020505227e-01 -6.138318466904374660e+00
-1.622195484294923329e+00 1.672727810783384561e-01 -5.777564629705712385e+00
-1.390270511544908549e+00 1.177495014577126381e-01 -5.633628378449263785e+00
-2.023786956217869637e+00 2.040534650104322556e-01 -6.032546754405231582e+00
-6.822971733660988525e-01 2.484031088316343647e-03 -5.226281002986159052e+00
-1.896493287484104284e+00 1.056573045170867975e-01 -6.097908304834646742e+00
-1.620729478842336313e+00 4.952717395953570162e-02 -5.830538005272588364e+00
-1.746019459007301267e+00 6.607761215639902652e-02 -5.951489680152614703e+00
-6.015179686420859539e-01 -1.036862598795677826e-01 -5.210595336483081930e+00
-4.875489529338357109e-01 -1.279486744826882072e-01 -5.067747621456418550e+00
-5.141405140267737428e-01 -1.229346452056691713e-01 -5.077956835110936318e+00
3.062115409425679724e-01 -2.394722338446223509e-01 -4.589355054336728301e+00
-1.582445883515167351e+00 -1.654062751860101502e-02 -5.833666876508149635e+00
-1.191035770269584404e+00 -7.616749822897483924e-02 -5.597491576641161259e+00
-1.647087877303726466e-01 -2.208583916998284047e-01 -4.944738944829317084e+00
-4.266681978457688151e-01 -1.916739605095328369e-01 -5.055443927246582980e+00
-1.330499310233507648e+00 -8.240749764087938745e-02 -5.758832527696562842e+00
2.961812724990721679e-01 -3.019036505121607816e-01 -4.597863075710240111e+00
-5.161231187560548772e-01 -1.965042893219214326e-01 -5.110126214693431201e+00
9.849977094406169309e-01 -4.235116544595585175e-01 -4.210011880942865048e+00
-1.608908596049611228e+00 -8.754775308398943245e-02 -5.863046787141027671e+00
-5.557933378652430978e-01 -2.518413131815783190e-01 -5.152019703002291173e+00
-1.650364998045600884e-01 -3.356257528822625957e-01 -4.990689781125694502e+00
-4.818704862627904983e-01 -3.298850284714486825e-01 -5.156494265637250329e+00
-1.670591715683458212e-01 -3.781576513062204770e-01 -5.005911440723408212e+00
1.293882000232905671e+00 -5.761523525004161872e-01 -4.076844209562213273e+00
-1.991250203906610672e+00 -1.653488866475955332e-01 -6.168216421976095099e+00
-6.906698668313285827e-01 -3.412025942918747168e-01 -5.375107681904482071e+00
-1.137315328494314048e+00 -2.752569236089543736e-01 -5.582049642073276807e+00
-2.036561350392828373e+00 -1.874197424948145507e-01 -6.232028929265471362e+00
-2.064752703512821252e+00 -1.819220451206789990e-01 -6.234685621708790926e+00
-4.866058888500022772e-01 -3.996930742485067523e-01 -5.172397773788904196e+00
-4.074700035742680471e-01 -4.251968203044253491e-01 -5.133031716733796657e+00
-1.982529252927209162e+00 -2.498276611237511269e-01 -6.212212730938794891e+00
-1.873338893677912953e+00 -2.774046295878562773e-01 -6.165100089268825911e+00
-1.667824206295180356e-01 -4.975692975303583898e-01 -5.065067166893664208e+00
-2.790618678953472376e+00 -1.796803366234295263e-01 -6.696519960231348101e+00
-1.488106435249107129e+00 -3.449900681721853601e-01 -5.892618493005111979e+00
6.535340055862268963e-04 -5.433716918527859985e-01 -4.987329413984024740e+00
-1.530077004462510271e+00 -3.995106633817145925e-01 -5.933878224102286936e+00
1.284245264683506471e-01 -6.166845859207785718e-01 -4.846078420038168133e+00
-5.152659286210926439e+03 1.500055238763102579e+03 6.657379571137200401e+03
-5.603423437478977087e-01 -5.351855279490552730e-01 -5.295601036898049507e+00
2.903918240690591124e-01 -6.438753703614723545e-01 -4.747821849443046638e+00
-5.890154673273600983e-01 -5.854813736022210779e-01 -5.334713852196244055e+00
-2.323848871942681082e+00 -4.238253615505382932e-01 -5.992956484157499375e+00
-2.791354911309307241e-01 -9.318402800928610175e-01 -4.710991709076251865e+00
-1.162902508406095992e+00 -8.125870919398042735e-01 -5.005657998929695651e+00
-1.868568163188551123e+00 -7.845122634384131821e-01 -5.024714305068484599e+00
-1.864407466642645117e+00 -9.915215094873308654e-01 -4.430734313042679950e+00
-1.655931512183256071e+00 -1.153117497766283250e+00 -4.024355412313161295e+00
-1.048155496378719853e+00 -1.295383936282134663e+00 -3.769477731592425052e+00
8.176195660784700558e-02 1.068244050378553300e+00 -5.191691263389246025e+00
-1.174220954790345717e+00 1.021437426774371549e+00 -5.705881731379093047e+00
-1.293681503663938859e+00 1.050745046951130135e+00 -5.794343888568772805e+00
-1.383333153387128700e+00 1.067778174500795041e+00 -5.854199946303502600e+00
-1.168935858589162713e+00 1.068642062801428594e+00 -6.112867907254810440e+00
-1.210966978486833767e+00 9.894283794974590984e-01 -5.716245739223110967e+00
-1.367780272631987648e+00 1.039411151798759647e+00 -5.823976337538184112e+00
-1.384303915354164083e+00 1.046058226808268987e+00 -5.833700138280200953e+00
-1.455633003233880451e+00 1.033993142579211266e+00 -5.865402528596985299e+00
-4.938482774234750905e-02 4.668628868507984087e-01 -5.147376357266794322e+00
7.118971314438370390e-01 -7.693256559325667432e-02 -4.237041562085895663e+00
-1.475410209214113033e+00 4.789653052754982987e-01 -5.518493661609360501e+00
-7.762916074064394323e-01 2.497950573968147070e-01 -5.105290995833382084e+00
-9.243516494369016234e-01 2.971306728798208119e-01 -5.203567063811807891e+00
-1.803273550042359563e+00 5.428536839299250572e-01 -5.771849375986365160e+00
1.237972507186230420e+00 -4.289337509352627031e-01 -4.003008212296448320e+00
-6.804997257229185026e-01 1.352794491764203744e-01 -5.100107060118171276e+00
1.121562008647562780e-01 -2.052507912683568247e-01 -4.707208985861628392e+00
-3.765453367761253944e-02 -1.708691941411530357e-01 -4.740131542643161389e+00
-1.161538461464105998e+00 1.756179390616663671e-01 -5.426179317064183216e+00
5.770433574315415592e-01 -3.677940150553731802e-01 -4.438146518097227045e+00
-1.204800542566154764e+00 1.711293399396746628e-01 -5.458534775576494802e+00
-9.490057372203531960e-01 3.946513409185230942e-02 -5.332907870287789898e+00
-1.822362002630582012e+00 2.938647168116448882e-01 -5.961233644187413638e+00
4.221855343827048967e-01 -4.041735052177051202e-01 -4.557912277663851874e+00
-1.041783761139380315e+00 5.370154154627134260e-03 -5.419821958116713745e+00
-1.278893825001782281e+00 7.883624623402768483e-02 -5.620254009084092672e+00
-2.494987953733106834e-01 -2.458108748141314137e-01 -4.990908938391766192e+00
-1.793503800457530106e+00 2.074448512486863627e-01 -5.972682559183947859e+00
-2.076188333240791550e+00 2.899273840081109110e-01 -6.078014195043675905e+00
1.213256755753130856e+00 -7.542330762180632364e-01 -4.142511331075536596e+00
9.805465186047270798e-01 -6.812976166737346739e-01 -4.303248400571231258e+00
-7.159858974654277619e-02 -3.591850201230524231e-01 -4.894253321746452556e+00
-1.826822212088677677e+00 1.925490550813362678e-01 -5.999864860963936231e+00
-1.967579532937268061e+00 2.857596382808474389e-01 -7.931771007557107289e+00
-9.200235674960927090e-02 -3.762651724420242316e-01 -5.009679022176905860e+00
1.270849963693700291e+00 -8.304123722450198475e-01 -4.178174677684652671e+00
-1.586922026030594068e+00 3.968999720984176666e-02 -5.796108433281170313e+00
-7.020111995182168885e-01 -2.509776773161715435e-01 -5.357486171043428946e+00
-2.235973263078231632e+00 2.610453178761549253e-01 -8.155084956904248727e+00
-1.082447744984107008e+00 -1.473058629240605877e-01 -5.505027224779383666e+00
-1.175854883124953121e+00 -1.196819358563124963e-01 -5.651205393233013297e+00
-1.795957082452067199e+00 7.741662642073471323e-02 -6.032288873935449658e+00
-2.102617048582843484e+00 2.041019216220182897e-01 -7.647880745660804891e+00
5.293521911357520482e-01 -6.787007823205395418e-01 -4.672271111143860622e+00
-1.834613738507825387e+00 4.445857915744329258e-02 -6.065079654281857025e+00
-6.774673115533901280e-01 -3.402449110294963330e-01 -5.354741769329458556e+00
-5.503728547667828819e-01 -3.928241338665611204e-01 -5.224738436938557662e+00
-9.934913990670598549e-01 -2.630238080871983297e-01 -5.481907484170481126e+00
9.672472866172099337e-01 -9.419646093396455422e-01 -4.412151116483257418e+00
-9.432839794669974909e-01 -3.452079398400348387e-01 -5.487344029954139835e+00
-1.030465511661670552e+00 -3.194530535977334607e-01 -5.551673596939849631e+00
-2.915751276596428854e-01 -6.036086555694198941e-01 -5.135326503337157789e+00
-1.460004405242341097e+00 -2.251603828064439039e-01 -5.799201866654009940e+00
1.284229171058105523e+00 -1.121452882628124703e+00 -4.301037733041181532e+00
6.072132547160735694e-01 -9.095320258989998408e-01 -4.593984961506822451e+00
-9.624177812500062101e-02 -7.242870904388579723e-01 -5.055087487590916417e+00
-1.022326808336117443e+00 -4.290118345939482047e-01 -5.577941973667416065e+00
-1.824223493357106651e+00 -2.069849327604935396e-01 -6.084551924600757111e+00
-1.561524673586473622e+00 -3.591705976736719319e-01 -5.944649518563204005e+00
-1.393125559394830182e+00 -4.267653404244312609e-01 -5.838761026153955314e+00
-1.054973725903681547e+00 -5.480090512336139863e-01 -5.749672670728996238e+00
-2.120523488001035073e+00 -2.197205942514210975e-01 -6.308905422287365283e+00
1.069390680284064477e+00 -1.254187177390422514e+00 -3.939837148026112068e+00
8.448666828658788486e-01 -1.214739359026444143e+00 -4.014698495532430300e+00
-4.932861551827601998e-01 -8.803963160507147778e-01 -4.866734265910813484e+00
-5.997437657070336936e-01 -8.447598847560429114e-01 -4.891754467258885519e+00
-6.990624835012714255e-01 -8.171424501517025041e-01 -4.945915295910725540e+00
-1.368195067112171870e+00 -6.425349869829706240e-01 -5.319831282229540825e+00
-2.719460263823041402e+00 -2.224884041163463222e-01 -6.289917997859499010e+00
-1.920651133197728067e+00 -5.137548214851905826e-01 -5.656508408729683524e+00
-2.116692666046800397e+00 -4.751020266065973385e-01 -5.865905707707334216e+00
-1.309373370415078952e+00 -7.433656788407506655e-01 -5.094557657697244224e+00
-1.658810852465572916e+00 -6.937999280841303795e-01 -5.182358810856807274e+00
-1.750360423044623026e+00 -7.457997100489127673e-01 -5.051597276120741498e+00
2.953290390737294269e-01 -1.397133522208300782e+00 -3.394989326090959825e+00
-1.894458162000469459e+00 -7.911754675395906711e-01 -4.930853118063104112e+00
-1.852866708696338627e+00 -8.647138013241597587e-01 -4.675683037902959249e+00
1.076064095061729786e-01 1.589012125980761247e+00 -5.299338023713442425e+00
8.415181815620406680e-02 1.505667058492355492e+00 -5.390318761067996789e+00
-3.083009360357029729e-02 1.084102288165142536e+00 -5.229133000916546870e+00
-4.801162975052342685e-01 1.478271439405701937e+00 -6.619608191661457752e+00
-1.700170064824738092e-01 9.292380622565564741e-01 -5.205853043972265226e+00
-1.213605694455990536e+00 1.029469630125134927e+00 -5.718360741000338088e+00
-1.260384646231487826e+00 1.026535323457586912e+00 -5.739970330315353308e+00
-1.357198359403267496e+00 1.062470447937091889e+00 -5.808329005678728230e+00
-1.169419750037881567e+00 9.490847714534216273e-01 -5.664561032080671410e+00
-1.210711913962433162e+00 9.565363997008330399e-01 -5.684267212128205848e+00
7.673198795919483617e-01 -2.189085611802034370e-01 -4.263223927312771444e+00
3.071613209032104663e-01 -2.456717987605839815e-01 -4.139913760102373885e+00
1.037793291385763705e+00 -6.501897765371814630e-01 -4.312793522386797918e+00
-1.902020039634948034e+00 5.026861529046483534e-01 -5.854889617391447310e+00
-1.116444113026384466e+00 8.983410827365340134e-02 -5.432590972040460819e+00
1.481864296974448658e+00 -1.329238294687152822e+00 -3.704868029354102532e+00
-1.029260410939337289e+00 4.863868047360682123e-01 -8.634420689323421882e+00
6.327084931977108306e-01 -9.525873840159567729e-01 -4.618291323408058702e+00
-1.386667625244302204e+00 5.435798210613226322e-01 -8.653493516257238838e+00
9.069941664937384296e-01 -1.265156453486189436e+00 -3.863030366422636419e+00
7.005098730971568433e-01 -1.247410658477147827e+00 -4.058351963329999812e+00
4.917155777705547459e-01 -1.187910895391470767e+00 -4.148517416977330896e+00
-1.419568147980439843e+00 -7.098209198250936269e-02 -5.753792736792915363e+00
5.355607826952130113e-01 -1.373202647724519831e+00 -3.593475361716790939e+00
-1.452529587773800257e+00 -2.945917718492457871e-01 -5.853273037789905153e+00
2.237675486584011497e-01 -1.426341837759671272e+00 -3.441425293871501978e+00
-1.166836664963751380e+00 -4.782788507307944026e-01 -5.738497143994721661e+00
-1.977058948723767084e+00 -5.782247846582490997e-02 -6.098728840972664322e+00
-8.467079648545250414e-01 -7.970483982890650410e-01 -5.064925099107402851e+00
-2.159245443680044563e+00 -7.860838479764023501e-02 -6.272013294873878486e+00
-1.832317617955846023e+00 -3.314052209160072149e-01 -6.128119832715083426e+00
-1.871311348590393164e+00 -3.155956011438780795e-01 -6.144513267978263471e+00
-1.500714879529785550e+00 -6.517380300623024647e-01 -5.377383441391448748e+00
-1.210719063044194188e+00 -1.135541296685285362e+00 -4.242031363847189596e+00
-1.753868560702726898e+00 1.915346350874035375e+00 -6.081539392559117907e+00
-4.548872635868567854e-02 4.141159200547895325e-01 -4.837491376802323551e+00
-1.316788644670482844e+00 1.054644768554291234e+00 -5.774651004638175600e+00
-1.832661722989389341e+00 1.389107847369986937e+00 -6.464948504207405300e+00
-1.839614279090191040e+00 1.263774659852884508e+00 -6.541367780386615927e+00
-1.941777776609863171e+00 1.187307001048929500e+00 -6.399005637570823524e+00
-1.872820739350835151e+00 1.153983951118045637e+00 -6.548813181830081653e+00
-1.780270741385952871e+00 1.174632740259893726e+00 -6.733519972438125833e+00
-1.956772997075015619e+00 1.108715386874475906e+00 -6.343823954412626698e+00
-1.930585738664722717e+00 1.205607296417762209e+00 -6.715051471342854406e+00
-1.699022806525867235e+00 1.161206093269844031e+00 -6.909986163378025736e+00
-1.966410473244602164e+00 1.072870710638242464e+00 -6.388894210180636080e+00
-8.075991915218149186e-01 2.237247069769464081e-01 -5.192731779417789184e+00
-5.780108203670639710e-01 5.082152325996865116e-02 -5.063584283219626947e+00
-1.626288649180440915e+00 1.066728506790773467e+00 -7.173915643139094911e+00
-1.748461402940169052e+00 1.039108984437589811e+00 -6.929783852509673991e+00
-1.821708247670507985e+00 1.027457156610703803e+00 -6.784417858694476777e+00
-2.001177146526291750e+00 9.781318284959072962e-01 -6.337155147397677268e+00
-1.936850239228217863e+00 9.801389988169351142e-01 -6.461012184456435214e+00
-2.007795569814901260e+00 9.515044366701438383e-01 -6.327397759520368759e+00
-1.836815618838376407e+00 9.601491977512867093e-01 -6.727498837178341518e+00
-1.982025556609153139e+00 9.371462127543173093e-01 -6.432565657022269789e+00
-1.618908467189028144e+00 9.727358080761757675e-01 -7.209238515722172558e+00
-1.781684849288015515e+00 9.169856681986667812e-01 -6.870966509877715289e+00
1.339079036471001016e+00 -1.650016534133564861e+00 -2.997772329277100134e+00
-1.721496927306378932e+00 8.991841871261690988e-01 -7.071834990860578429e+00
-5.836136745349134181e-01 7.523111417591843431e-01 -9.165555095767135896e+00
6.324842819274648642e-01 -1.387593489794763046e+00 -3.568711968123083889e+00
-1.999817390103656001e+00 7.251739125774507855e-01 -6.480123326978906917e+00
4.788005567609656676e-01 -1.400646374410329908e+00 -3.520812858942634627e+00
