-1.413631794746967207e+00 1.003179381343097365e+00 -5.819764989535862298e+00
-1.907345702405426335e+00 4.642451173057342007e-01 -5.869774885548736165e+00
-2.014713548801438936e+00 3.213923117670361429e-01 -6.017225285789407074e+00
-1.730786556708999724e+00 2.673034564344248243e-01 -5.895593801702672110e+00
-1.832881558795875776e+00 1.726343675597188654e-01 -6.010723732236867178e+00
-1.176181379361235013e+00 3.673432588441286756e-02 -5.580609943059232414e+00
1.399566868854030532e-01 -1.758217713760683032e-01 -4.671593186318661495e+00
-1.228933713876882328e+00 -6.475987153386437989e-02 -5.624130234291114583e+00
8.567662966828248905e-01 -5.480295305624813818e-01 -4.353416395762043756e+00
-1.999904827162833243e+00 -2.106055811447344606e-01 -6.213575105659486120e+00
-2.146511190562092164e+00 -2.060855783734984736e-01 -6.319221687511465291e+00
-3.787508714495712581e-01 -4.256796416217238921e-01 -5.128393936034196798e+00
-1.449868517985885008e+00 -3.288011401931760780e-01 -5.858151141239991588e+00
-9.347686058095839856e-01 -4.849151913656833401e-01 -5.535427512289482266e+00
-1.436225913724643588e+00 1.009029411570073087e+00 -5.837225075702041188e+00
-1.947165926114466261e+00 4.742850705522608790e-01 -5.898681230622601745e+00
3.746415415222331124e-01 -3.272696396491812099e-01 -4.581546282918074198e+00
2.936247938115757461e-01 -6.730154937000443205e-01 -4.774535831075580994e+00
-2.052374233582443530e+00 8.950957451695471662e-03 -6.161752598478436482e+00
-9.634589981359051869e-01 -7.646395979226253692e-01 -5.134991126906142789e+00
-1.707846954273692264e+00 1.515575969384188815e+00 -6.249497808149027556e+00
-9.344395888256781801e-02 1.071827859736250277e+00 -5.243371656119203195e+00
-1.518400885977977843e+00 1.024183747603088168e+00 -5.861151677260463266e+00
7.844761282641139477e-01 6.690181872469178614e-01 -4.642520827337821565e+00
-9.733550360164200388e-01 7.156186427744972711e-01 -5.413886434552925842e+00
-3.496225032251480402e-01 5.381837930222164168e-01 -5.025630514832367446e+00
-2.567269904293357219e-01 5.198544503286872676e-01 -4.972837902911003916e+00
-3.554723861199649004e-01 5.068766889418073740e-01 -5.009426152710751978e+00
7.307330718101020528e-01 4.008541827673496316e-01 -4.491299198215088495e+00
-1.070502162674033947e-01 4.366436004500206525e-01 -4.876821112762467436e+00
-1.348433137986723152e+00 4.501740815640768445e-01 -5.449072525849660842e+00
7.103679470801391727e-01 3.692380310805710719e-01 -4.485231659958129669e+00
-1.137153943375701859e+00 3.927740657479442676e-01 -5.330278626654236795e+00
-1.037871884261666322e+00 3.676002790168203527e-01 -5.261554834281763071e+00
-8.550136486899487798e-01 3.210928305225000945e-01 -5.152413598216124768e+00
-9.689724578227361107e-01 3.079865708081385711e-01 -5.234412453149523969e+00
-1.293876493804649419e+00 3.220057570298817118e-01 -5.456603271397037602e+00
-1.128047585873212411e+00 2.843222371019099581e-01 -5.365857768573579101e+00
-8.605071641413326589e-01 2.712303481273732331e-01 -5.163359083642039771e+00
-1.413947294675383493e+00 3.019633753101466089e-01 -5.683577630508562351e+00
-1.888080851543680438e+00 3.091022585683095847e-01 -6.013520403046609175e+00
-6.961538705907914792e-01 2.134825041240510923e-01 -5.071457830508681930e+00
-1.015167526956785249e+00 2.196139809660457576e-01 -5.311135415090557643e+00
-1.837857250412937127e+00 2.183674542137437891e-01 -5.973698481142860395e+00
-6.781689384586805369e-01 1.784497972258847487e-01 -5.075372350735965377e+00
-8.028010602066528723e-01 1.678214191274008116e-01 -5.171209838771019029e+00
-9.824499339251138164e-01 1.605391063106727245e-01 -5.304495889730093339e+00
-1.471431169517137594e+00 1.593903686172683243e-01 -5.662187679714952182e+00
-9.013277780547300777e-01 1.508242538579621927e-01 -5.254243271375890423e+00
-5.190412479930163192e-01 1.295370904142619795e-01 -4.981244971678685296e+00
-8.469651867381983168e-01 1.314049075937642475e-01 -5.221409250359516641e+00
-1.816200139813341496e-01 8.803695315119247633e-02 -4.769994273140206964e+00
-5.345791332304302701e-01 9.027875228945436703e-02 -5.016782862669770360e+00
-1.841564112146615972e+00 9.048761339271985116e-02 -6.033190110437232967e+00
-1.346416806485710160e-01 5.388615464729357152e-02 -4.752700133494672130e+00
-2.076093396397951985e+00 4.859963937872511380e-02 -6.172986541992709242e+00
-1.816932865470048286e+00 4.168870005788695432e-02 -6.053946890673664427e+00
-1.846096472571373548e+00 -3.569534878132856609e-02 -6.090598993217848367e+00
6.614205571863510658e-01 -4.297693427868423677e-02 -4.206640299916838188e+00
-1.756415973949049469e+00 -5.813977310438964846e-02 -6.007730412625407190e+00
-7.091028755710704345e-01 -1.200171111672987817e-01 -5.289285547433954626e+00
-1.624826597518218008e-01 -1.328782485180688977e-01 -4.845634045102568344e+00
-6.093936822922260133e-01 -1.438930448706177978e-01 -5.223296026014792481e+00
6.562568878055926591e-01 -1.776720671004126118e-01 -4.324221309801502322e+00
-1.933002404222416759e+00 -2.626084767513663931e-01 -6.175378898860794941e+00
-7.681136986277617984e-01 -2.356969742972065129e-01 -5.392518330730094789e+00
7.205937620066922289e-01 -1.976919889426586585e-01 -4.296996572725775287e+00
-1.228403632314125915e-01 -2.289629870845021342e-01 -4.922763266773497293e+00
-1.496707563513194339e+00 -2.974317331168634393e-01 -5.878948595491772622e+00
-6.116907151498847117e-01 -2.745775713568029963e-01 -5.280777353372754668e+00
-7.692201331857559943e-01 -3.170656417411139016e-01 -5.432486994836260408e+00
-1.082400009133515750e+00 -3.285565948222591293e-01 -5.595080575538251111e+00
-7.091651372403675602e-01 -3.334915554520574421e-01 -5.389225207586467725e+00
-3.400064521673510920e-01 -3.660876120239217046e-01 -5.060216039968101320e+00
-1.084211448783644949e+00 -4.489510900081337130e-01 -5.644586771816441306e+00
-1.191146231940195532e+00 -4.592443620656383452e-01 -5.742273563467034769e+00
-9.061839289106535800e-01 -5.030880223078816327e-01 -5.526087158114167508e+00
1.048021700417349766e+00 -3.854423519772350870e-01 -4.159753632010385616e+00
5.907907754184411608e-01 -4.500940417204503108e-01 -4.547471559788203166e+00
-1.240506574065266127e-01 -5.095887070800247942e-01 -5.048962997758360771e+00
-8.235804442397662850e-01 -5.622424421944017814e-01 -5.498204147845346945e+00
-3.717649472331888694e-01 -5.441967017058304545e-01 -5.166918627342437453e+00
9.706829830262772019e-01 -5.114827603346316920e-01 -4.254653980467834273e+00
1.022893227299506713e-01 -6.191179131964376081e-01 -4.861507681364863664e+00
-4.662080136498317207e-01 -6.709026604741721300e-01 -5.272655533470443245e+00
-1.819970328803628412e+00 -6.863860272263261342e-01 -5.270514536885444912e+00
1.201369758792946607e+00 -5.821311453316676543e-01 -4.168209379598296849e+00
-2.020213589363417384e-01 -7.051509164077227609e-01 -5.115512705136148419e+00
5.878687726431107707e-01 -6.899781493509992147e-01 -4.648101231393781063e+00
-7.897313397558131803e-03 -7.569666266734464966e-01 -5.034803852738549246e+00
5.123870447422201879e-02 -7.675114200998320868e-01 -4.951322567947895159e+00
-1.025403900807700275e+00 -7.883793484499337367e-01 -4.975904611629490937e+00
4.220882092330273672e-01 -8.713508740088494742e-01 -4.740213869194838558e+00
5.787438369718375109e-01 -9.143475073538468445e-01 -4.695908380066916799e+00
1.042946756321336377e+00 -1.011565157163386575e+00 -4.381537563519805722e+00
1.193940043026654685e+00 -1.049400932855371948e+00 -4.347292258430360157e+00
3.624460029666325307e-03 1.045325792922404684e+00 -5.181362758866256968e+00
-2.797502951572395161e-02 1.041384890014366960e+00 -5.210409109173997244e+00
-1.200922895620254893e+00 1.114522380356227860e+00 -6.236802859573609581e+00
-1.209965685731662521e+00 9.541465035696905517e-01 -5.646659036666592080e+00
-1.246275940694142603e+00 9.672848986678437289e-01 -5.709124132437850996e+00
-1.365326602534873146e+00 9.932827004923486802e-01 -5.786601604821497880e+00
-1.786906407416295250e+00 8.921281617025108579e-01 -5.917251393375256185e+00
-1.831274506323895102e+00 8.667025511374214508e-01 -5.919804929466316423e+00
-2.750813486096342908e-01 5.187197355143519095e-01 -4.986056056527536029e+00
-2.142272924387237376e-01 4.989147251165846342e-01 -4.949550527562751157e+00
-9.544666191876215178e-02 4.683740546207512678e-01 -4.883896191713268387e+00
-7.730960310020161541e-02 4.538167754148018651e-01 -4.848657055300079399e+00
-2.174369589398552183e+00 6.903053054347960682e-01 -5.882845020054739749e+00
-1.992376042658841051e+00 5.659540659593854661e-01 -5.887231099139651924e+00
-1.617798890410578450e+00 4.767779454725937782e-01 -5.636794386785547673e+00
-1.725133280281676118e+00 4.594370123241690584e-01 -5.729042490729836956e+00
-1.844665039930512451e+00 4.835408169608665374e-01 -5.808053525485446400e+00
-1.788341734020418183e+00 4.069089608821279125e-01 -5.793121449564097247e+00
-1.087372378994278854e+00 2.794450145354817616e-01 -5.327389535991750691e+00
-4.735216247823934022e-01 9.917345538297712981e-02 -4.966218840253359801e+00
-1.790943404996615529e+00 2.840599047884829753e-01 -5.936536904051173735e+00
-2.042194617806018186e+00 2.787502938634632277e-01 -6.038451110692824031e+00
-1.737312797526034069e+00 1.937755893899221760e-01 -5.916508842317253603e+00
7.391247813822929835e-01 -1.717113227277677623e-01 -4.262355682175033245e+00
-7.766988783897029736e-01 2.293511565102835173e-02 -5.267503437186078052e+00
-6.990629095516519564e-01 6.152030270766372169e-03 -5.243745908066641981e+00
-1.794206834971842079e+00 1.632456951712731030e-01 -5.989101473396638120e+00
-5.969539051779497729e-01 -2.051880230495160135e-02 -5.183236469019328219e+00
-1.737920201140964904e+00 1.496077458904214175e-01 -5.936673885971370801e+00
-2.058851975301986492e+00 1.876221309233916112e-01 -6.102709186753866533e+00
-1.222816277494025661e+00 5.055454948239888197e-02 -5.586925082567240963e+00
-7.769155676018181245e-01 -5.845314766682802032e-02 -5.302186935125651424e+00
-6.865803593228521073e-01 -8.631526318740992409e-02 -5.261373724869333302e+00
-7.031054375195912032e-01 -7.925886736268736299e-02 -5.278879920688565264e+00
-1.743304527694905959e+00 2.013711803486027685e-02 -5.994094316197114303e+00
-2.198036199115461997e+00 7.360856510873879655e-02 -6.254669787702591854e+00
-1.543112610694968412e+00 -3.192710444327193781e-02 -5.793419763477162476e+00
8.102591147385478088e-03 -2.623645396951516107e-01 -4.875464685095841411e+00
-1.490972595220737995e+00 -5.871448219183899447e-02 -5.769290816376951625e+00
-1.299923053813162532e+00 -8.818039691322890339e-02 -5.706218993813299001e+00
-1.904902476611432416e+00 -2.306063638756478476e-02 -6.145931442571005654e+00
-7.777250531372550402e-01 -1.887937664564138529e-01 -5.359863685175598746e+00
-3.992869050807654197e-01 -2.447871866375044836e-01 -5.055377990736306337e+00
-1.101337724334158441e+00 -1.459862563135028435e-01 -5.524646765274840554e+00
-6.904430128632426111e-01 -2.151670672725078393e-01 -5.315766589619943083e+00
-1.656234560779928033e+00 -9.838888459480425730e-02 -5.909703583443306485e+00
-1.339412619812201832e+00 -1.967409063828694793e-01 -5.789172820806192554e+00
-1.298703627991987686e+00 -2.093252199897048249e-01 -5.767204952268143003e+00
-1.228485313733839401e+00 -2.311704458460265565e-01 -5.714482599578496469e+00
-1.186852618522818981e+00 -2.397777619179767838e-01 -5.694817152083501810e+00
-1.511417435742895554e+00 -2.176329860672805705e-01 -5.853180525154924929e+00
-6.031937856149418575e-01 -3.620269038316428767e-01 -5.330884500937151493e+00
-1.523626502091564916e+00 -2.425092078407070362e-01 -5.853576777438839862e+00
-1.559537967100679046e+00 -2.341332006444435954e-01 -5.888291541331421186e+00
-1.059993372188611449e+00 -3.145794557403678859e-01 -5.555458883470834941e+00
7.651695414140782248e-01 -6.014900410833871058e-01 -4.418198980205443327e+00
6.015900762309132066e-01 -5.930936068083410007e-01 -4.615711547059548003e+00
-6.417555240681462048e-02 -5.257520840058358402e-01 -4.975752401452804285e+00
-1.297863322278000053e+00 -4.225531262536711408e-01 -5.816564871485547350e+00
-6.072151002962808963e-01 -6.488361893389030799e-01 -5.375202187893531658e+00
-7.503826067647362263e-01 -8.163751574573068215e-01 -5.004574157881286567e+00
-2.314650332536857480e+00 -6.462279966181061486e-01 -5.322822331765049597e+00
-2.194398082723221677e+00 -8.316423551355509591e-01 -4.752031634027139795e+00
6.069833817665207798e-01 -1.341327155352959766e+00 -3.626794602695680769e+00
6.881562886506986665e-01 -1.361116771114610824e+00 -3.569000928878155232e+00
-7.005814408195042142e-02 1.049431108123992429e+00 -5.225929686755534043e+00
-2.207025204937168583e-01 9.401762520021994529e-01 -5.244320398208332179e+00
-1.628119177486325175e-01 9.281945534794953101e-01 -5.203038730625395125e+00
-1.782002336584953328e+00 8.489002050307873359e-01 -5.863364886147868660e+00
-1.032771361345174110e+00 7.338482523206324437e-01 -5.455166041367911056e+00
-3.964794685277945319e-01 5.104685981207051082e-01 -5.024152990766593163e+00
-3.062991347481973659e-01 4.901058802132391978e-01 -4.944101527757003289e+00
-1.929337523820488842e+00 5.407653206857104822e-01 -5.849878292215900721e+00
6.773295611047075448e-01 3.891480398484692960e-01 -4.493415035440385452e+00
-1.889764970089426122e+00 4.958642335788087108e-01 -5.841643653516176649e+00
-1.817627402776261558e+00 4.129475355617777121e-01 -5.843792216066818312e+00
-1.944587245291102162e+00 3.462928318734668776e-01 -5.943965106235875595e+00
-6.595311629998120706e-01 2.717754506739680220e-01 -5.021886171204494431e+00
-4.531957825494861147e-01 2.167763216831063433e-01 -4.913009318053694230e+00
-8.433066454991600125e-01 2.271397974428179256e-01 -5.180943356129288802e+00
-5.594143072195469912e-01 2.051976506276444734e-01 -4.984993512761918488e+00
-5.656494618283718356e-01 1.693683645261704895e-01 -4.999847192807980178e+00
-6.214912547048460079e-01 1.611430554382914659e-01 -5.040912865453951675e+00
-4.895566062713259670e-01 1.436071817825553265e-01 -4.966603589453917778e+00
-1.890284677559983528e+00 1.862039785657650381e-01 -6.076652071030443025e+00
-7.137839823769596137e-01 1.478813949577901521e-01 -5.119488560492281515e+00
-1.064815693417643150e+00 1.352658660186855377e-01 -5.372896181794732051e+00
-2.069642612269044224e-01 1.138355154923487156e-01 -4.775416255403415633e+00
-4.928931056574673009e-01 4.310277230095111572e-02 -4.997884426035116512e+00
-1.896555242883463333e+00 5.574415855124666141e-02 -6.138709107295725609e+00
-4.280963966643159813e-01 -6.270909326152485086e-03 -4.974626245222366627e+00
-5.069440398185871555e-01 -4.046635062424250306e-02 -5.039307747896605960e+00
-1.823374686681015211e+00 -4.519724459066953165e-02 -6.086908410008324388e+00
-1.515503558534727180e+00 -4.991437144817826438e-02 -5.803874467836161344e+00
7.594059227709296089e-02 -7.467016647693783260e-02 -4.664329453399194136e+00
-3.013743467002942267e-01 -8.178919976882038922e-02 -4.908892189314147281e+00
1.686108203234215175e+00 -8.548018420794241401e-02 -4.685571022135425423e+00
1.713918282449585773e+00 -9.072262414409432152e-02 -4.673478385151441650e+00
-7.628528574927402328e-01 -1.104718555646361094e-01 -5.357906400352201892e+00
4.334980668179302388e-01 -1.029115339607874630e-01 -4.436346114450544498e+00
-6.850020148738880099e-01 -1.239650833362172799e-01 -5.282266369710487908e+00
4.709356534300918606e-01 -1.092336171247152293e-01 -4.412957019987652885e+00
1.750520408793339866e-01 -1.095021554385158941e-01 -4.607799812958951691e+00
-2.063394274273712803e+00 -1.470833154022311295e-01 -6.232863720852295231e+00
-5.538571452050751187e-01 -1.826679358910167916e-01 -5.137214562685655572e+00
-1.046937420711806510e+00 -2.090616700813123230e-01 -5.511820826337344492e+00
-7.095863872487191415e-01 -2.063424552395957401e-01 -5.325211101597715491e+00
4.723098781711311811e-01 -1.802437516049630872e-01 -4.443793091356214475e+00
-1.828133560278520919e+00 -2.570380854173375806e-01 -6.097378700222831682e+00
-6.862296674621317649e-01 -2.538597340524450519e-01 -5.342727511276621932e+00
-5.176282054726289994e-01 -2.557794644174853360e-01 -5.133480906815145239e+00
7.026301601510440697e-01 -2.226086727102246920e-01 -4.318280430709400264e+00
4.982138364036695077e-01 -2.253573298902134814e-01 -4.437163668166795638e+00
-4.127428282788205699e-02 -2.516587064659573381e-01 -4.886996363465712534e+00
-4.923009954122751219e-01 -2.690373834498927530e-01 -5.131339038012180609e+00
-1.040985647639000033e+00 -3.145877021276843322e-01 -5.492866608514415105e+00
6.164150785948643296e-01 -2.628444695498978745e-01 -4.388216267830430617e+00
-5.026729774198607226e-01 -3.254186551580693920e-01 -5.163732413306791003e+00
5.325352630065004478e-01 -2.847554180918801525e-01 -4.444550647209449146e+00
8.262829751340721174e-01 -3.089046997571967546e-01 -4.275705365105019418e+00
-4.200801587211725474e-01 -3.864560661881658588e-01 -5.118756702608606268e+00
5.750871942691652139e-01 -3.430879543519036456e-01 -4.440333843955422743e+00
-4.564771156640929917e-01 -3.994132576914933841e-01 -5.165063711577938754e+00
-2.722739768791007542e+00 -4.625267523627022426e-01 -5.839609794392198516e+00
-4.334245729744717890e-02 -4.096738732993546184e-01 -4.951964721206474351e+00
-4.994370897962800426e-01 -4.488756251327476465e-01 -5.223011035279910175e+00
5.121134447273515411e-01 -4.306412533625186279e-01 -4.582706584264414573e+00
-3.363576356222059971e-01 -4.915958377401872803e-01 -5.113955363491150763e+00
-7.819108396449455656e-01 -5.723525426659767934e-01 -5.468221982444987361e+00
1.120747915061673927e+00 -4.476538479252202274e-01 -4.132280299417882219e+00
1.094260379879025358e+00 -4.712946935083209832e-01 -4.169630182110949157e+00
5.826656439682031952e-01 -5.444841926738097637e-01 -4.572997655864799782e+00
4.701850184251908926e-01 -5.607651920847381843e-01 -4.658376671166832850e+00
5.096032042417438790e-01 -5.688455605641933310e-01 -4.638924448674354828e+00
5.302933439456222198e-01 -5.710798039941547000e-01 -4.628548566378115403e+00
-1.662217955373704648e+00 -6.773562128828727325e-01 -5.351154954728404967e+00
1.061299388295253721e+00 -5.456972888068885030e-01 -4.211058492915629614e+00
9.359115610417682030e-01 -5.957122423313297999e-01 -4.307703338032339957e+00
4.728227811376451983e-01 -6.577117386009693201e-01 -4.704939464497240209e+00
5.093604327471840110e-01 -6.694777817628505545e-01 -4.679561590169984520e+00
8.072111593649211603e-01 -6.491625609826874310e-01 -4.399696103888294907e+00
2.631202582015740865e-01 -7.366008575926912272e-01 -4.799242813375069971e+00
7.949677222463575887e-01 -8.436158443488456227e-01 -4.481170100636341580e+00
7.430584816200499487e-01 -8.809762846543703896e-01 -4.532566166070438385e+00
6.611956009375831167e-01 -9.226306342309871233e-01 -4.594005021215764373e+00
8.540580702999760465e-01 -9.066964299696916862e-01 -4.473518683129348972e+00
-4.484099843637289196e-01 -9.714865857641049596e-01 -4.660015261873817316e+00
8.435453979770929367e-01 -9.516194464777030237e-01 -4.479737586560804452e+00
-1.723442308453836835e+00 -1.062196598198047903e+00 -4.178826897169369836e+00
7.834529764490233417e-01 -1.286540866828961072e+00 -4.188116060284538200e+00
1.485671015181593280e+00 -1.318701912178190883e+00 -3.693400996785153101e+00
-2.385886364544065608e-01 -1.319158972993915047e+00 -3.713905756257850133e+00
-1.694574217643227687e+00 1.941137798554536831e+00 -6.176070269141221480e+00
-1.738790219461395337e+00 1.570998791128477956e+00 -6.358039676848828314e+00
-1.866191113855064421e+00 1.402647325541498402e+00 -6.269808289723619588e+00
-1.207768417506727421e-01 1.081672160833684337e+00 -5.265343301671040699e+00
1.870226736971044301e-01 1.092985577343692505e+00 -5.388680162600508972e+00
-1.424861954744976122e+00 1.063509322715930683e+00 -5.811253239668373816e+00
-1.332936743681335745e+00 1.044995431264309049e+00 -5.757403115012984962e+00
-1.333526119119894382e+00 9.820636769825844548e-01 -5.716962955601578855e+00
-1.271347627300749794e+00 1.052724358133555693e+00 -6.188731131152974463e+00
7.656846553088859642e-01 6.793016185514638705e-01 -4.684613136046202442e+00
-2.029294291591217547e+00 5.824622200360602964e-01 -5.909933059076529993e+00
-2.411628746903654863e-01 4.708343978754191972e-01 -4.935272128495316046e+00
-1.626194059534490588e+00 3.624231394609893631e-01 -5.703968303724098021e+00
-5.351662365367703122e-01 2.387930075659074336e-01 -4.958790258736136991e+00
-9.018514663808560039e-01 2.165407391328915410e-01 -5.251349893065606622e+00
-1.199304624048038059e+00 1.925270580408140197e-01 -5.437884156275723413e+00
-3.483778222954899140e-01 1.643210428079022456e-01 -4.837806764233867796e+00
-1.894446557678181264e+00 2.094508018498207058e-01 -6.074479200554788072e+00
-1.814759829944317726e+00 1.698881665304964594e-01 -6.003069578456644351e+00
-5.903281394541165517e-02 1.155689995505594508e-01 -4.682352525853298530e+00
-1.359235768692947932e+00 1.088854666563712909e-01 -5.662143752688042042e+00
-1.302123669327444722e+00 7.086621348459815062e-02 -5.603674326376499870e+00
-1.234294637279860218e+00 6.879696706470875278e-02 -5.621761149764982868e+00
-3.299085862637798905e-01 5.004128381820342752e-02 -4.887252645640911553e+00
-8.233681088589093200e-01 5.394481352156967752e-02 -5.261517841222734582e+00
-1.928450822073037307e-01 4.135783989976656722e-02 -4.824058419282685861e+00
1.384958444665862765e-01 3.012431822720935265e-02 -4.577439949667955865e+00
3.686076784874220413e-01 1.830106499008969309e-02 -4.431780030805005488e+00
-1.939846999258883598e+00 -5.559993201996060730e-02 -6.219999423658765458e+00
1.519593116972046687e-01 -7.726741134714153192e-02 -4.613239296213046181e+00
4.852062700402149514e-02 -8.453348451451470069e-02 -4.667560830320063303e+00
3.598501055070645327e-01 -9.342546189305964144e-02 -4.464540992199856007e+00
1.253661783187891787e+00 -1.172843601670093688e-01 -4.533462170861346507e+00
1.294556143023497308e+00 -1.244320400503623608e-01 -4.529662980789294302e+00
-2.081094375572767774e+00 -2.131791150660544143e-01 -6.306012397643686818e+00
-5.239296576263960947e-01 -1.743334072294283332e-01 -5.107721746147964481e+00
5.450966346418261166e-01 -1.594040597119338043e-01 -4.384832181148140329e+00
-1.362730330274223078e+00 -2.229609651657255276e-01 -5.817984779212382662e+00
3.679090767507633974e-01 -1.795902377946366479e-01 -4.499797046857358040e+00
-3.835564144872501413e-01 -2.154463383862358083e-01 -5.035756107007130389e+00
-6.137222724199506985e-01 -2.280468858364868290e-01 -5.232512397902603141e+00
5.603684280339442658e-01 -2.064172282010344195e-01 -4.395678926645511631e+00
-9.508093588668343754e-01 -2.510205891624860408e-01 -5.466895089902610749e+00
6.651025765942161216e-01 -2.121585683899289698e-01 -4.324696595076073180e+00
-4.849867261787562112e-01 -2.436591226636947438e-01 -5.130055954453224487e+00
-6.105539862737162649e-01 -2.515395318598612207e-01 -5.253198322122438313e+00
-1.462699070360113263e+00 -2.861320007121628262e-01 -5.822052005383257622e+00
-1.016983613703350331e+00 -2.842132458610132639e-01 -5.528504553354886220e+00
6.431797016405138567e-01 -2.275772486952904738e-01 -4.342705704246108134e+00
5.600924736983233787e-01 -2.387373853943984825e-01 -4.404795970266276228e+00
6.921491218395917633e-01 -2.485014396635366607e-01 -4.322182500654762727e+00
6.338669937266447896e-01 -2.452635856982561258e-01 -4.344936443736549414e+00
7.515740188266015753e-01 -2.837564372633918919e-01 -4.298706565681100322e+00
-1.321391558875149586e-01 -3.444260764337509495e-01 -4.939166218272469600e+00
6.355084180668683913e-02 -3.338059167387874004e-01 -4.764901888698273247e+00
4.977730967339810131e-01 -3.230372163742820102e-01 -4.474090190908910358e+00
-1.921526835593704435e-02 -3.721500861645717917e-01 -4.868159774822402142e+00
6.725450350684574197e-01 -3.370969787086364744e-01 -4.366125931189488441e+00
6.911513678738897548e-01 -3.543344999181821109e-01 -4.364004819059614348e+00
8.658084524487830169e-01 -3.559330920365628148e-01 -4.257046344343631716e+00
-3.526953031384374437e-01 -4.342393957322342457e-01 -5.121723036041974986e+00
-2.106007478664988497e+00 -4.785817523274644714e-01 -5.654297822541267671e+00
4.734571759265484570e-01 -4.234896433376758584e-01 -4.620044917233246728e+00
5.301180851877658196e-01 -4.337750148819979890e-01 -4.569680889576988037e+00
-1.083089005188475840e+00 -5.411146631210393965e-01 -5.678410837408250700e+00
2.998836948610865694e-01 -4.683582670541059922e-01 -4.669455504519155475e+00
-4.828666368583332535e-01 -5.479702486247324256e-01 -5.253164039066184010e+00
5.909752415633035688e-02 -5.116634831809343531e-01 -4.847652999367616289e+00
1.297864836341164008e+00 -4.411292748526942642e-01 -4.042290015015676197e+00
8.455788345084033208e-01 -4.700936946850581832e-01 -4.301656703120929848e+00
1.166661405765166970e+00 -4.644576621683649820e-01 -4.110525185047774421e+00
5.083811030928919728e-01 -5.262936326016988131e-01 -4.612873541783039322e+00
5.489871381186371968e-01 -5.345569738804401005e-01 -4.602500454791710105e+00
3.101568267569246862e-01 -5.420258953620520348e-01 -4.687510693302328946e+00
-1.556067586593834928e+00 -6.440872129204521235e-01 -5.427351124599542942e+00
-1.356644673920480715e+00 -6.398789645142656246e-01 -5.291014483324143036e+00
2.677210594211311800e+00 -6.931781240669522282e-01 -5.486174728764241060e+00
1.296350087720206545e+00 -5.188760968181390654e-01 -4.061636351054286109e+00
2.648733358009966454e-01 -6.479195740979577511e-01 -4.759181626662382314e+00
2.988785518165899546e+00 -7.646245808761169549e-01 -5.400029683536226699e+00
2.776302397287332191e+00 -7.472826231473769232e-01 -5.362007268192410692e+00
1.311268176729621093e-01 -7.035864474631801091e-01 -4.869973619605774573e+00
8.642384232811509692e-01 -6.580517941128708470e-01 -4.364134479407007383e+00
-1.043439655083829853e+00 -7.815577955754404726e-01 -5.089421366985070527e+00
9.706623332776821433e-01 -6.622231975139610816e-01 -4.295928320337623063e+00
2.948390777659649409e+00 -8.403080262445795645e-01 -5.325100869585260632e+00
1.117323228898882415e-01 -7.685026268129380167e-01 -4.898550649438369931e+00
9.777449734445331497e-01 -6.818766523956801828e-01 -4.285635410002034185e+00
8.654653769536969632e-01 -6.950978421607210134e-01 -4.365824574660821966e+00
-1.935281337860015993e+00 -7.990158085093367335e-01 -4.960574565203800468e+00
-6.786393455668129349e-01 -8.335335518203236260e-01 -4.992747358424568738e+00
1.248458548899217035e+00 -7.052242306562225282e-01 -4.134665994570251968e+00
-9.363029612046749328e-01 -8.507237412824631972e-01 -4.886842461674734572e+00
-1.825250973657386089e+00 -8.466418166940202772e-01 -4.817393312080072043e+00
1.281432207796128875e+00 -7.785954731440534182e-01 -4.151164339296924410e+00
8.691751389929021077e-01 -8.514262161106943561e-01 -4.416768414222523198e+00
6.497143230328616959e-01 -8.962093387290887003e-01 -4.587913940809782432e+00
1.274431922628558977e+00 -8.273457341379673036e-01 -4.163096197062245984e+00
-2.288737735472889945e-01 -9.415538304175162798e-01 -4.698734098573073226e+00
6.298221666872125812e-01 -9.317007747434514764e-01 -4.607534190539199770e+00
2.599199242989317149e+00 -1.010575902310034024e+00 -4.856614364032793674e+00
-1.835200762846453726e+00 -9.586679569662854838e-01 -4.504239383243561434e+00
-2.325540297816247826e+00 -9.423995363732872166e-01 -4.408904001617268698e+00
1.276224870824565594e+00 -9.064919899253358615e-01 -4.205905165946132840e+00
1.248523237864903601e+00 -1.040572157399503261e+00 -4.251287594156240246e+00
-1.688245715444266271e+00 -1.074382572734859487e+00 -4.213437558422607587e+00
-1.911931862109477631e+00 -1.131726316454464643e+00 -4.068926915389736720e+00
4.713867146181150436e-01 -1.184253904923793677e+00 -4.153862237245530942e+00
-3.522511658409924196e-01 -1.177295261825719974e+00 -4.063873709962249947e+00
-1.666970334961196176e+00 -1.176928096644358934e+00 -3.919634105042784089e+00
-1.529684180810156890e+00 -1.187165975062267842e+00 -3.876514252006741046e+00
9.077516728712071714e-01 -1.236536468703691494e+00 -3.933404132716492363e+00
1.090596562384660961e+00 -1.255929391404842166e+00 -3.957985149631556343e+00
1.126813418362725638e+00 -1.263435565604788424e+00 -3.917190092292937020e+00
4.325781091725219851e-01 -1.309550500293266140e+00 -3.644317702426944194e+00
1.419642808894934216e+00 -1.357684327337720154e+00 -3.599228957975857401e+00
-1.746857942576176548e+00 1.888932809889692477e+00 -6.026373515038787154e+00
-1.679564231319949252e+00 1.495344986913129892e+00 -6.176880212718903529e+00
-1.789605236273644095e+00 1.425078374365014389e+00 -6.186989899014484706e+00
-1.823551258703946854e+00 1.387603269768140635e+00 -6.180820111871334177e+00
-1.265318837623944814e+00 1.033787292658989498e+00 -5.728703643589323491e+00
-1.215774302769131232e+00 1.021721255841496312e+00 -5.703900636778048927e+00
-3.359216872879331600e-02 4.857457226819886786e-01 -4.819629709212006397e+00
-5.152609256654613196e-02 4.771503118220927764e-01 -4.840956904072436728e+00
-2.679763405739943871e-01 4.762277223604031162e-01 -4.939527931522600390e+00
-2.076237700150432630e+00 6.221208470415321434e-01 -5.929900732799567642e+00
-2.341191347059854877e+00 5.930510392112542384e-01 -5.389901671119793569e+00
-2.056560153833158378e+00 5.858651534364658353e-01 -5.918754793528745672e+00
-1.364518455717322665e+00 3.722110844386504747e-01 -5.475310336814542822e+00
-1.258118546970707019e+00 3.451737524449225436e-01 -5.430810451580872389e+00
-1.907250856690204444e+00 4.365135812672507609e-01 -5.868501995504325386e+00
-1.230020917049471363e+00 3.196489098451055777e-01 -5.431798720377752687e+00
-6.696753831720667627e-01 2.252408333390429063e-01 -5.054514126532232865e+00
-1.327697089240138739e+00 3.249093079662653261e-01 -5.489591093076072070e+00
2.141617164087160699e-02 9.391518841459133016e-02 -4.640657729456180824e+00
2.273148570526133116e-01 4.536581443824453524e-02 -4.529580019348787623e+00
-1.041160360217425529e+00 2.462697392473214564e-01 -5.298576046157713826e+00
-1.655824727899440685e+00 3.465369479202338177e-01 -5.727397144667883744e+00
-6.421895202506097133e-01 1.599240879527860648e-01 -5.651553925268985701e+00
7.453405605763324671e-01 -8.514310888122023080e-02 -4.239467390663357094e+00
-3.571712613285953353e-01 8.488157284156881699e-02 -4.880383949365834084e+00
-1.022736045556847717e+00 1.858847976429835736e-01 -5.339134134712858248e+00
-1.630756466125964810e+00 2.370064284046451697e-01 -5.742541146051826750e+00
-4.743036963631399594e-01 4.315189204006633639e-02 -4.969931414701891370e+00
-1.891132672178597041e+00 2.348899070137697442e-01 -6.048620133195829141e+00
-1.632125236608276131e+00 1.962404943571317006e-01 -5.764511146269295061e+00
-2.154853016198606586e+00 2.544912506020541310e-01 -6.138318466904411075e+00
-1.622195484293875500e+00 1.672727810784564728e-01 -5.777564629705713273e+00
-1.390270511544930754e+00 1.177495014577174398e-01 -5.633628378449174967e+00
-2.023786956217869637e+00 2.040534650104323111e-01 -6.032546754405230693e+00
-6.822971733660989635e-01 2.484031088316503242e-03 -5.226281002986159940e+00
-1.896493287484103396e+00 1.056573045170871999e-01 -6.097908304834645854e+00
-1.620729478842336091e+00 4.952717395953568080e-02 -5.830538005272588364e+00
-1.746019459007301489e+00 6.607761215639927632e-02 -5.951489680152616479e+00
-6.015179686420356608e-01 -1.036862598795809248e-01 -5.210595336483124562e+00
-4.875489529338346562e-01 -1.279486744826885958e-01 -5.067747621456421214e+00
-5.141405140679868868e-01 -1.229346451963403836e-01 -5.077956835009745262e+00
3.062115409425688606e-01 -2.394722338446225174e-01 -4.589355054336729189e+00
-1.582445883515167573e+00 -1.654062751860106012e-02 -5.833666876508149635e+00
-1.191035770269557537e+00 -7.616749822898422062e-02 -5.597491576641262512e+00
-1.647087877303735626e-01 -2.208583916998283214e-01 -4.944738944829316196e+00
-4.266681978457671498e-01 -1.916739605095328924e-01 -5.055443927246586533e+00
-1.330499309235944949e+00 -8.240749814349127012e-02 -5.758832530227603996e+00
2.961812724990736112e-01 -3.019036505121612812e-01 -4.597863075710241887e+00
-5.161231187560537670e-01 -1.965042893219217102e-01 -5.110126214693432978e+00
9.849977094406180411e-01 -4.235116544595585730e-01 -4.210011880942865936e+00
-1.608908596049610118e+00 -8.754775308398959899e-02 -5.863046787141032112e+00
-5.557933378652281098e-01 -2.518413131815802619e-01 -5.152019703002317819e+00
-1.650364998045598941e-01 -3.356257528822622627e-01 -4.990689781125694502e+00
-4.818704862627911090e-01 -3.298850284714488490e-01 -5.156494265637248553e+00
-1.670591715683454603e-01 -3.781576513062204214e-01 -5.005911440723408212e+00
1.293882000232978502e+00 -5.761523525004326185e-01 -4.076844209562278110e+00
-1.991359278600154825e+00 -1.653927223557883075e-01 -6.168801807948156579e+00
-6.906698668313283607e-01 -3.412025942918752719e-01 -5.375107681904482959e+00
-1.137315328494388211e+00 -2.752569236089287275e-01 -5.582049642073035223e+00
-2.036561350392828373e+00 -1.874197424948144397e-01 -6.232028929265470474e+00
-2.064752703512819920e+00 -1.819220451206794431e-01 -6.234685621708799808e+00
-4.866058888500028323e-01 -3.996930742485065857e-01 -5.172397773788902420e+00
-4.074700035742667148e-01 -4.251968203044256822e-01 -5.133031716733799321e+00
-1.982529252957304644e+00 -2.498276610240220963e-01 -6.212212730856856879e+00
-1.873338893677912065e+00 -2.774046295878564439e-01 -6.165100089268830352e+00
-1.667824206162144829e-01 -4.975692975305707200e-01 -5.065067166911787488e+00
-2.790618678953469267e+00 -1.796803366234116794e-01 -6.696519960231151813e+00
-1.488106435249107795e+00 -3.449900681721851381e-01 -5.892618493005109315e+00
6.535340055868232075e-04 -5.433716918527864426e-01 -4.987329413984025628e+00
-1.530077004462509604e+00 -3.995106633817150366e-01 -5.933878224102287824e+00
1.284245264680268228e-01 -6.166845859206754321e-01 -4.846078420037906120e+00
5.489661344165002177e-01 -6.766615870421555101e-01 -4.659424512327027479e+00
-5.603423437478995961e-01 -5.351855279490548289e-01 -5.295601036898045955e+00
2.903918234655079034e-01 -6.438753701639585714e-01 -4.747821848577953752e+00
-5.890154673273584329e-01 -5.854813736022214110e-01 -5.334713852196245831e+00
-2.323848871942680638e+00 -4.238253615505376271e-01 -5.992956484157498487e+00
-2.791354911305841124e-01 -9.318402800931177010e-01 -4.710991709076635559e+00
-1.162902508406097324e+00 -8.125870919398028303e-01 -5.005657998929692987e+00
-1.868568163188365050e+00 -7.845122634386898497e-01 -5.024714305069683640e+00
-1.864407466642649558e+00 -9.915215094873235380e-01 -4.430734313042659522e+00
-1.655931512183257182e+00 -1.153117497766281696e+00 -4.024355412313157743e+00
-1.048155496378716522e+00 -1.295383936282137549e+00 -3.769477731592430825e+00
8.176195660784697783e-02 1.068244050378553300e+00 -5.191691263389245137e+00
-1.174220954790345273e+00 1.021437426774371326e+00 -5.705881731379091271e+00
-1.293681503663939081e+00 1.050745046951129913e+00 -5.794343888568772805e+00
-1.383333153387127812e+00 1.067778174500795263e+00 -5.854199946303505264e+00
-1.168935858589153165e+00 1.068642062801429926e+00 -6.112867907254822875e+00
-1.210966978473787758e+00 9.894283794966389767e-01 -5.716245739242022950e+00
-1.367780272631975880e+00 1.039411151798753430e+00 -5.823976337538199211e+00
-1.384303915354160752e+00 1.046058226808269875e+00 -5.833700138280205394e+00
-1.455633003233996803e+00 1.033993142579186175e+00 -5.865402528596839637e+00
-4.938482774254836227e-02 4.668628868507482266e-01 -5.147376357266612246e+00
7.118971314438371500e-01 -7.693256559325643840e-02 -4.237041562085895663e+00
-1.475410209214111479e+00 4.789653052754986318e-01 -5.518493661609362277e+00
-7.762916074064374339e-01 2.497950573968144294e-01 -5.105290995833383860e+00
-9.243516494369024006e-01 2.971306728798212560e-01 -5.203567063811806115e+00
-1.803273550042360229e+00 5.428536839299251682e-01 -5.771849375986364272e+00
1.237972507186229754e+00 -4.289337509352627031e-01 -4.003008212296448320e+00
-6.804997257229176144e-01 1.352794491764206519e-01 -5.100107060118173052e+00
1.121562008647579434e-01 -2.052507912683566305e-01 -4.707208985861628392e+00
-3.765453367761287251e-02 -1.708691941411531467e-01 -4.740131542643161389e+00
-1.161538461464098670e+00 1.756179390616656455e-01 -5.426179317064191210e+00
5.770433574315418923e-01 -3.677940150553732357e-01 -4.438146518097227045e+00
-1.204800542566153654e+00 1.711293399396740245e-01 -5.458534775576495690e+00
-9.490057372203531960e-01 3.946513409185229554e-02 -5.332907870287789898e+00
-1.822362002630582012e+00 2.938647168116449437e-01 -5.961233644187413638e+00
4.221855343827101703e-01 -4.041735052177072851e-01 -4.557912277663854539e+00
-1.041783761139382314e+00 5.370154154627356305e-03 -5.419821958116711969e+00
-1.278893824998471818e+00 7.883624623396143227e-02 -5.620254009084772129e+00
-2.494987953733130703e-01 -2.458108748141313027e-01 -4.990908938391763527e+00
-1.793503800457627806e+00 2.074448512487089835e-01 -5.972682559183753348e+00
-2.076188333240794659e+00 2.899273840081111331e-01 -6.078014195043672352e+00
1.213256755753129745e+00 -7.542330762180630144e-01 -4.142511331075536596e+00
9.805465186045496662e-01 -6.812976166736840478e-01 -4.303248400571135335e+00
-7.159858974382235508e-02 -3.591850201242839935e-01 -4.894253321748418095e+00
-1.826822212088676789e+00 1.925490550813360180e-01 -5.999864860963938007e+00
-1.967579532937267173e+00 2.857596382808476609e-01 -7.931771007557111730e+00
-9.200235674960841048e-02 -3.762651724420245092e-01 -5.009679022176908525e+00
1.270849963693702511e+00 -8.304123722450207357e-01 -4.178174677684653560e+00
-1.586922026030591404e+00 3.968999720984122542e-02 -5.796108433281174754e+00
-7.020111995182169995e-01 -2.509776773161714880e-01 -5.357486171043428946e+00
-2.235973263078020690e+00 2.610453178760940296e-01 -8.155084956905081839e+00
-1.082447744984106786e+00 -1.473058629240606154e-01 -5.505027224779384554e+00
-1.175854883124952677e+00 -1.196819358563126906e-01 -5.651205393233015073e+00
-1.795957082451999254e+00 7.741662642071431288e-02 -6.032288873935589990e+00
-2.102617048582840376e+00 2.041019216220178456e-01 -7.647880745660814661e+00
5.293521911357529364e-01 -6.787007823205402079e-01 -4.672271111143861511e+00
-1.834613738508707570e+00 4.445857915767238017e-02 -6.065079654280816079e+00
-6.774673115533965673e-01 -3.402449110294935020e-01 -5.354741769329452339e+00
-5.503728547667829929e-01 -3.928241338665614535e-01 -5.224738436938557662e+00
-9.934913990670091177e-01 -2.630238080872148165e-01 -5.481907484170546851e+00
9.672472866174590678e-01 -9.419646093397148201e-01 -4.412151116483396862e+00
-9.432839794641516562e-01 -3.452079398413811506e-01 -5.487344029958021174e+00
-1.030465511661673883e+00 -3.194530535977327390e-01 -5.551673596939846078e+00
-2.915751276596440511e-01 -6.036086555694193390e-01 -5.135326503337156900e+00
-1.460004405242337766e+00 -2.251603828064449864e-01 -5.799201866654014381e+00
1.284229171058105745e+00 -1.121452882628124703e+00 -4.301037733041181532e+00
6.072132547160735694e-01 -9.095320258989995077e-01 -4.593984961506822451e+00
-9.624177811550438388e-02 -7.242870904421321310e-01 -5.055087487597138995e+00
-1.022326808336118997e+00 -4.290118345939476496e-01 -5.577941973667414288e+00
-1.824223493357106207e+00 -2.069849327604946221e-01 -6.084551924600760664e+00
-1.561524673586473400e+00 -3.591705976736720429e-01 -5.944649518563203117e+00
-1.393125559394829072e+00 -4.267653404244315940e-01 -5.838761026153957090e+00
-1.054973725903681769e+00 -5.480090512336143194e-01 -5.749672670728996238e+00
-2.120523488001035517e+00 -2.197205942514210142e-01 -6.308905422287365283e+00
1.069390680284063588e+00 -1.254187177390422514e+00 -3.939837148026112512e+00
8.448666828658661920e-01 -1.214739359026459686e+00 -4.014698495532448952e+00
-4.932861551827605884e-01 -8.803963160507146668e-01 -4.866734265910813484e+00
-5.997437657070353589e-01 -8.447598847560423563e-01 -4.891754467258885519e+00
-6.990624833476246636e-01 -8.171424502278046287e-01 -4.945915296067119549e+00
-1.368195067107932150e+00 -6.425349869859476870e-01 -5.319831282235155889e+00
-2.719458883465405208e+00 -2.224895450564880472e-01 -6.289923752895426823e+00
-1.920651133197727178e+00 -5.137548214851909156e-01 -5.656508408729685300e+00
-2.116692666046795512e+00 -4.751020266065945075e-01 -5.865905707707337768e+00
-1.309373370415078730e+00 -7.433656788407509985e-01 -5.094557657697245112e+00
-1.658810852465572916e+00 -6.937999280841304905e-01 -5.182358810856807274e+00
-1.750360423044623914e+00 -7.457997100489122122e-01 -5.051597276120740609e+00
2.953290390737492443e-01 -1.397133522208310774e+00 -3.394989326090967818e+00
-1.894458162000469237e+00 -7.911754675395906711e-01 -4.930853118063104112e+00
-1.852866708696338627e+00 -8.647138013241600918e-01 -4.675683037902959249e+00
1.076064095063067605e-01 1.589012125980765244e+00 -5.299338023713488610e+00
8.415181815727562631e-02 1.505667058492377031e+00 -5.390318761068357389e+00
-3.083009360357256978e-02 1.084102288165143202e+00 -5.229133000916545093e+00
-4.801162975052344351e-01 1.478271439405701715e+00 -6.619608191661457752e+00
-1.700170064824743921e-01 9.292380622565561410e-01 -5.205853043972264338e+00
-1.213605694455990980e+00 1.029469630125134927e+00 -5.718360741000338088e+00
-1.260384646231488048e+00 1.026535323457586912e+00 -5.739970330315352420e+00
-1.357198359403266830e+00 1.062470447937091889e+00 -5.808329005678728230e+00
-1.169419750037880235e+00 9.490847714534216273e-01 -5.664561032080671410e+00
-1.210711913962432718e+00 9.565363997008330399e-01 -5.684267212128205848e+00
7.673198795919718984e-01 -2.189085611801103171e-01 -4.263223927312626671e+00
9.770072930812008227e-01 -4.688534357112880135e-01 -4.219763773495089687e+00
1.037793291385763483e+00 -6.501897765371815741e-01 -4.312793522386797918e+00
-1.902020039634945148e+00 5.026861529046477983e-01 -5.854889617391449086e+00
-1.116444113026383578e+00 8.983410827365299889e-02 -5.432590972040461708e+00
1.481864296974448214e+00 -1.329238294687152155e+00 -3.704868029354102532e+00
-1.029260410939332182e+00 4.863868047360672131e-01 -8.634420689323427212e+00
6.327084931977107196e-01 -9.525873840159568839e-01 -4.618291323408059590e+00
-1.386667625244304869e+00 5.435798210613236314e-01 -8.653493516257237061e+00
9.069941664937390957e-01 -1.265156453486189436e+00 -3.863030366422636419e+00
7.005098730971562881e-01 -1.247410658477147605e+00 -4.058351963329999812e+00
4.917155777706350150e-01 -1.187910895391508959e+00 -4.148517416977344219e+00
-1.419568147980446060e+00 -7.098209198250593488e-02 -5.753792736792912699e+00
5.355607826952140105e-01 -1.373202647724520498e+00 -3.593475361716790939e+00
-1.452529587773800923e+00 -2.945917718492453985e-01 -5.853273037789905153e+00
2.237675486585194440e-01 -1.426341837759738551e+00 -3.441425293871502866e+00
-1.166836664818195812e+00 -4.782788509331461491e-01 -5.738497144125677352e+00
-1.977058948723767751e+00 -5.782247846582513201e-02 -6.098728840972664322e+00
-8.467079648576044670e-01 -7.970483982863773020e-01 -5.064925099110238804e+00
-2.159245443673738496e+00 -7.860838479877965690e-02 -6.272013294875421252e+00
-1.832317617955846467e+00 -3.314052209160072149e-01 -6.128119832715083426e+00
-1.871311348590394052e+00 -3.155956011438772468e-01 -6.144513267978262583e+00
-1.500714879529784662e+00 -6.517380300623025757e-01 -5.377383441391448748e+00
-1.210719063044135346e+00 -1.135541296685330659e+00 -4.242031363847137193e+00
-1.753868560702780632e+00 1.915346350874045145e+00 -6.081539392559101032e+00
-4.548872635868337483e-02 4.141159200547886443e-01 -4.837491376802323551e+00
-1.316788644670428221e+00 1.054644768554277690e+00 -5.774651004638190699e+00
-1.832661722989390451e+00 1.389107847369987381e+00 -6.464948504207405300e+00
-1.839614279090191706e+00 1.263774659852884508e+00 -6.541367780386615038e+00
-1.941777776609861172e+00 1.187307001048928834e+00 -6.399005637570824412e+00
-1.872820739350825381e+00 1.153983951118041418e+00 -6.548813181830084318e+00
-1.780270741385922006e+00 1.174632740260091568e+00 -6.733519972438029022e+00
-1.956772997071181130e+00 1.108715386870702035e+00 -6.343823954414148147e+00
-1.746845319257748885e+00 1.160444733234453851e+00 -6.835173615119210844e+00
-1.699022806525868123e+00 1.161206093269844475e+00 -6.909986163378024848e+00
-1.966410473244601054e+00 1.072870710638241576e+00 -6.388894210180636080e+00
-8.075991915217959338e-01 2.237247069769386643e-01 -5.192731779417791849e+00
-5.780108203670613065e-01 5.082152325996745768e-02 -5.063584283219626947e+00
-1.626288649180439805e+00 1.066728506790773023e+00 -7.173915643139095799e+00
-1.748461402940163056e+00 1.039108984437589589e+00 -6.929783852509673991e+00
-1.821708247664736158e+00 1.027457156621927270e+00 -6.784417858697775472e+00
-2.001177146526293527e+00 9.781318284959077403e-01 -6.337155147397676380e+00
-1.936850239228216752e+00 9.801389988169352252e-01 -6.461012184456435214e+00
-2.007795569814901704e+00 9.515044366701442824e-01 -6.327397759520367870e+00
-1.836815618838354869e+00 9.601491977512794929e-01 -6.727498837178354840e+00
-1.982025556644563924e+00 9.371462127667352648e-01 -6.432565657002236925e+00
-1.618908467189168920e+00 9.727358080762099624e-01 -7.209238515722117491e+00
-1.781684849288014405e+00 9.169856681986662261e-01 -6.870966509877715289e+00
1.339079036470990802e+00 -1.650016534133559087e+00 -2.997772329277102354e+00
-1.721496927306378932e+00 8.991841871261694319e-01 -7.071834990860578429e+00
-5.836136745349750354e-01 7.523111417592233119e-01 -9.165555095767107474e+00
6.324842819274685279e-01 -1.387593489794764823e+00 -3.568711968123083889e+00
-1.999817390103655779e+00 7.251739125774511185e-01 -6.480123326978907805e+00
4.788005567610562618e-01 -1.400646374410376538e+00 -3.520812858942607093e+00
-2.062965217465522638e+00 6.429248957662622166e-01 -6.382600729873701084e+00
-2.031746007289350509e+00 6.224839190403937961e-01 -6.501020486324644132e+00
-9.423794370959185374e-01 5.536952526655715134e-01 -8.676250017778501800e+00
-3.671839543731106881e-01 -9.965921477950656637e-01 -3.623888312650519250e+00
2.493245260219096593e-01 -1.215320839054785607e+00 -4.134496993002868770e+00
1.897695753977364508e-01 -1.257031254358933259e+00 -3.920628414240240112e+00
1.167672074661174203e-01 -1.181610472942973722e+00 -4.245209410101411507e+00
-1.671449528593001332e+00 5.384119154756739078e-01 -7.336336134321041591e+00
-2.159313608283398356e+00 5.225026621721313713e-01 -6.199165439585777371e+00
-2.097814208445034190e+00 5.206265675370060908e-01 -6.360860536410164023e+00
-2.117493494947106480e+00 4.770459711173794526e-01 -6.301530476276529846e+00
-3.520349779688362601e-01 -9.975852363501991338e-01 -4.656635902858512033e+00
-5.149967037785343482e-01 -8.743944604306194135e-01 -4.866631549934355760e+00
-1.941252464940063316e+00 4.105842327535485503e-01 -6.797472166996322507e+00
-2.052611543797208782e+00 3.891990868574268791e-01 -6.568467472500513438e+00
-2.988603512213006130e-01 -1.240440548193450399e+00 -4.053066024276795076e+00
-1.573609267112196175e+00 4.343536868502857473e-01 -8.350949677892058887e+00
-1.829214844899452075e+00 2.934680246503973411e-01 -7.140315808648126428e+00
-2.225178755219744620e+00 3.332697333662750783e-01 -6.184473140427639848e+00
-1.117022574778595567e+00 -5.131455296938292054e-01 -5.671331206572717498e+00
-1.827301080087240903e+00 4.362107758047787942e-01 -8.142524613003983447e+00
-2.020811479791843723e+00 2.469895237271808874e-01 -6.679073230098414804e+00
-1.053914756166195676e+00 -7.295263949056521868e-01 -5.173949647027954235e+00
-2.147136650034984218e+00 2.207903088357889287e-01 -6.428547466648753428e+00
-1.025765555274557927e+00 -8.772130320073749932e-01 -4.912913716468231051e+00
-2.132909874751863111e+00 1.638887237925164553e-01 -6.475588675122324389e+00
-2.149659141793256012e+00 1.409963369782129827e-01 -6.439190077839390902e+00
-1.351384531347995077e+00 -6.559468852939550620e-01 -5.363913133572808078e+00
-2.026572334617150695e+00 -8.639694796294256074e-02 -6.158688665655445149e+00
-2.064589578521091262e+00 2.199476385014393909e-01 -7.696801293641144959e+00
-2.217370453775552974e+00 7.534093063884728103e-02 -6.349172441610687834e+00
-8.856981344747505425e-01 -1.369173592912561466e+00 -3.692753773984335908e+00
